# .PCD v0.7 - Point Cloud Data file format
VERSION 0.7
FIELDS x y z
SIZE 4 4 4
TYPE F F F
COUNT 1 1 1
WIDTH 264
HEIGHT 1
VIEWPOINT 0 0 0 1 0 0 0
POINTS 264
DATA ascii
-0.37541312 -0.48709011 -1.488
-0.32113096 -0.42828813 -1.4842669
-0.52299923 -0.45441946 -1.4104
-0.37523064 -0.46851334 -1.4258183
-0.31570324 -0.4317866 -1.4630001
-0.11144084 -0.44562098 -1.4620001
-0.52305007 -0.44968718 -1.3920001
-0.38299805 -0.46396416 -1.399
-0.61733121 -0.36478552 -1.3435001
-0.38298672 -0.36960453 -1.272143
-0.47227141 -0.32945886 -1.3290001
-0.032922372 -0.33696374 -1.2956668
0.25881907 0.33910206 -1.2655001
-0.45200503 -0.42801848 -1.2346667
-0.38106829 -0.3767851 -1.2245001
-0.23906285 -0.39386237 -1.2440001
-0.30048978 -0.2399914 -1.2443335
-0.022453839 -0.22594222 -1.2191429
-0.51264274 -0.35450548 -1.1590002
-0.36548114 -0.38666224 -1.1812
-0.34942687 -0.37958509 -1.1750001
0.18654172 -0.35010538 -1.1210001
-0.46548307 -0.32904139 -1.1440001
0.12492019 -0.2934401 -1.1714
0.21098737 -0.34108487 -1.123
-0.055513758 -0.2484742 -1.1240001
0.11769267 -0.2762827 -1.1412858
0.17017719 -0.26155964 -1.1516876
-0.22618835 0.048852652 -1.164
-0.11696984 -0.38428086 -1.1140001
-0.03236768 -0.37025103 -1.0556667
0.045940436 -0.3606571 -1.0648737
0.10183938 -0.35932085 -1.0657934
0.17536473 -0.35898221 -1.0761684
0.21636581 -0.36056322 -1.0687039
-0.42943302 -0.33364466 -1.0610001
-0.23356713 -0.3440401 -1.051
-0.070990101 -0.33272871 -1.0840001
-0.065111302 -0.32813969 -1.0765002
0.12540835 -0.34336591 -1.0864167
0.18856943 -0.34534276 -1.1045806
0.22050905 -0.34436372 -1.0684682
-0.24530992 -0.22967321 -1.0994287
-0.1813817 -0.27293462 -1.0853333
-0.06225561 -0.24455711 -1.1128889
0.1572115 0.27624667 -1.08075
-0.28248972 -0.37794951 -1.0090001
-0.27639937 -0.38390791 -1.011905
-0.10868343 -0.38414478 -1.0131365
-0.018773623 -0.37361428 -1.0218475
0.032553699 -0.37372679 -1.02376
0.10181949 -0.37298533 -1.0253001
0.17205507 -0.37672949 -1.0292716
0.24418361 -0.36493415 -1.0009084
0.30418682 -0.35987395 -1.0069073
-0.42295709 -0.33310083 -1.0450001
-0.30687127 -0.30413231 -1.0260001
-0.2338044 -0.33911085 -1.0445001
0.08101514 -0.34515494 -1.0378573
0.23967738 -0.33683646 -0.99627811
0.30239204 -0.33771998 -0.99958026
-0.12616257 -0.23003621 -0.9842
-0.028494166 -0.18564293 -0.98300004
-0.36009246 0.0011573532 -0.98650002
0.23455933 -0.35725001 -0.97261304
-0.31245303 -0.30760777 -0.93114418
-0.15404931 -0.30149043 -0.94620007
-0.096849561 -0.29253149 -0.92173696
0.24796472 -0.30891636 -0.96605659
0.30731907 -0.29924458 -0.94398224
-0.31373858 -0.23177063 -0.93433332
-0.26896307 -0.26068872 -0.91433334
0.029582722 -0.25295189 -0.94164711
0.25818962 -0.26789904 -0.95518631
0.30679959 -0.2593171 -0.93516314
0.43292004 -0.23776488 -0.92700005
-0.31678712 -0.19855818 -0.95114297
-0.17397104 0.058347624 -0.91960001
-0.0250415 0.063197501 -0.93300003
0.11076126 0.054001287 -0.91300005
-0.29163265 -0.31777099 -0.89833343
0.3024756 -0.30743146 -0.84875715
-0.37239099 -0.21629064 -0.86500007
-0.32103515 -0.26714799 -0.90780002
-0.24423356 -0.26197439 -0.8637144
0.31625915 -0.24915841 -0.8569867
0.11542665 -0.19143716 -0.85558337
0.40818101 -0.022322431 -0.84688246
0.42401993 -0.025251195 -0.85075003
-0.33358014 0.052120455 -0.86550009
-0.157381 0.036127511 -0.85786211
-0.018995926 0.033809762 -0.85251737
0.10653851 0.039979097 -0.86657143
0.22461985 0.15630284 -0.86100006
-0.19905163 -0.28439066 -0.77840006
0.27846149 -0.31508982 -0.83400005
0.30725566 -0.30142581 -0.83457464
-0.30992305 -0.26708859 -0.79725021
-0.19334356 -0.24882078 -0.77537507
-0.080516398 -0.23759674 -0.79490006
0.31686187 -0.25225994 -0.8217237
-0.2609759 -0.14742714 -0.81300002
-0.13201506 -0.15925698 -0.77336377
-0.017875463 -0.19544081 -0.78050005
0.067378215 -0.15215506 -0.78076929
0.095213428 -0.18158424 -0.78745461
0.14121689 -0.20428838 -0.81700003
0.29715827 -0.19943297 -0.78680003
-0.14780478 -0.0013044614 -0.77200001
0.40984148 -0.029877657 -0.82885116
0.42378432 -0.036471624 -0.82826322
-0.29878041 0.019175638 -0.80752546
-0.24132927 0.031714767 -0.78181463
-0.18784493 0.038834617 -0.79769194
-0.12315808 0.01725816 -0.77960235
-0.020234955 0.012081491 -0.79148436
0.10047853 0.011455895 -0.79333329
0.26329076 0.015989358 -0.79282707
0.28096724 0.012509069 -0.77200001
-0.29314414 0.096521869 -0.81555557
-0.27123505 0.088207148 -0.77650011
-0.18215486 0.098542973 -0.78650987
-0.12687008 0.0807724 -0.77487504
-0.024628883 0.071201682 -0.77333343
-0.28754783 0.16091584 -0.778
-0.17666987 0.16558738 -0.78330588
-0.19829755 0.23589596 -0.83200002
-0.20421542 -0.28438491 -0.76630777
-0.297019 -0.26311576 -0.76850003
-0.18356498 -0.24466379 -0.75676191
0.014337086 -0.21371822 -0.75588894
-0.22477145 -0.15744127 -0.73780006
-0.14852697 -0.14059751 -0.73199999
-0.12696765 -0.15924421 -0.76721436
-0.051484525 -0.15471318 -0.71509093
0.042789742 -0.206521 -0.72466671
0.29039159 -0.18122122 -0.71786201
-0.14806119 -0.13667312 -0.7304737
-0.28664783 -0.0080184098 -0.73860002
-0.23980699 -0.011115781 -0.72665519
-0.17463061 -0.012046791 -0.72636384
-0.1030803 -0.011402883 -0.72852176
-0.037121039 -0.011286397 -0.7307024
0.030883489 -0.012657518 -0.70659971
0.087110385 -0.012629349 -0.71802145
0.25087535 -0.011161488 -0.72217393
0.28026295 -0.00072854437 -0.74800003
0.3657369 -0.0098305009 -0.76900005
-0.2902061 0.0030069596 -0.75900006
-0.2328953 0.053855173 -0.76635259
-0.19755684 0.023575682 -0.76465636
-0.093389504 0.036277745 -0.74332482
-0.047514357 0.036392123 -0.74727952
0.01265928 0.024368098 -0.70728469
0.08027745 0.02152401 -0.71078128
0.25976023 0.0039186087 -0.76311982
0.283254 0.0058106305 -0.76151437
-0.23766367 0.10599612 -0.75250953
-0.19780819 0.11142597 -0.75889754
-0.094067909 0.10400946 -0.71899509
-0.047525063 0.10503957 -0.72353244
0.02550119 0.12625813 -0.70509094
0.1387284 0.0858768 -0.70054549
0.16146284 0.083857261 -0.70413321
-0.28097743 0.15004039 -0.76750004
-0.23658782 0.17206901 -0.72987002
-0.19206949 0.17436741 -0.74349701
-0.11268581 0.14756462 -0.73357439
-0.035919663 0.14480868 -0.72136539
0.031108361 0.14187299 -0.71266669
-0.21810821 0.21136831 -0.74028575
-0.23441027 -0.21149731 -0.66500002
-0.11595207 -0.23874752 -0.66533339
0.26749745 -0.23116727 -0.64223176
-0.24035895 -0.20315577 -0.6805715
-0.15950495 -0.15733124 -0.65450001
-0.07316573 -0.16455381 -0.68150008
-0.039098222 -0.16517983 -0.64324999
0.032996453 -0.18817729 -0.66333336
0.083060481 -0.14584763 -0.69700003
0.27557519 -0.20351891 -0.63499993
0.29913309 -0.16780087 -0.67405379
-0.22324315 -0.12912771 -0.67733335
0.11281361 -0.11945617 -0.66933334
0.30818373 -0.13739188 -0.64165395
-0.23584035 -0.029866835 -0.67267275
-0.17758629 -0.035381518 -0.65848863
-0.10735416 -0.035210732 -0.66028357
-0.033695262 -0.035465505 -0.66051209
0.038572367 -0.029948629 -0.6674363
0.11070693 -0.026760085 -0.65781569
0.17072842 -0.023870464 -0.64567059
0.25028309 -0.028126383 -0.65222222
0.30121237 -0.030974071 -0.64293778
0.039586689 0.037649237 -0.68341553
0.11519527 0.032662246 -0.64985019
0.17445207 0.019202223 -0.6360997
0.26306102 0.01859341 -0.63869691
0.2843233 0.012266881 -0.63854176
0.037484515 0.096219309 -0.67087334
0.095198326 0.086450703 -0.6839177
0.19124596 0.082807519 -0.68481004
0.21038347 0.074560978 -0.64250004
-0.21246517 -0.21680428 -0.5855
-0.19552198 -0.22957435 -0.60860878
-0.13546941 -0.22650088 -0.61325008
0.27078214 -0.22161599 -0.60363847
0.28598994 -0.21709771 -0.58084553
-0.19215788 -0.15754853 -0.59236842
-0.09742941 -0.17608735 -0.60100001
-0.039284028 -0.15513317 -0.60658985
0.016167277 -0.14329194 -0.59878576
0.27740052 -0.20246315 -0.61029005
0.28988907 -0.17750527 -0.59395808
-0.17692265 -0.10031614 -0.57413512
-0.10296068 -0.091366909 -0.57355553
-0.032570895 -0.076374769 -0.56821883
0.026450053 -0.072951004 -0.56312913
0.10875443 -0.12114281 -0.57750005
0.27005127 -0.11090063 -0.56336194
0.29319352 -0.1150745 -0.58010077
-0.22020353 -0.054290578 -0.60597944
-0.17442515 -0.058803458 -0.59182584
-0.10542743 -0.058468882 -0.59318
-0.035356935 -0.059738997 -0.59037256
0.035479084 -0.058844157 -0.59265149
0.10495643 -0.057701502 -0.59285885
0.17428531 -0.057731513 -0.59111059
0.24733198 -0.053001635 -0.59536153
0.29432118 -0.049543299 -0.60346681
-0.0022622086 0.03862197 -0.58828574
0.00061463058 0.028330564 -0.57249999
0.13258788 0.051598251 -0.62498754
0.1619698 0.042985115 -0.62147707
0.26854703 0.02466248 -0.61970556
0.28553423 0.020711573 -0.61962521
-0.037297253 0.12148469 -0.56333339
0.097425587 0.10042167 -0.60828573
0.2692973 0.090644583 -0.574
0.22498754 0.16258177 -0.60250008
0.28732201 -0.21398404 -0.55949998
-0.17395137 -0.16988635 -0.55033338
-0.011198167 -0.17196631 -0.52721334
0.0074334913 -0.17296666 -0.53525585
-0.16908401 -0.079455316 -0.53589463
-0.10473973 -0.078884922 -0.53588897
-0.034441762 -0.079086065 -0.53417903
0.035103526 -0.081291713 -0.53431946
0.104922 -0.080267578 -0.53364235
0.17760821 -0.098913878 -0.52870011
0.24006107 -0.093184747 -0.54695833
0.28336015 -0.080044098 -0.55754298
-0.17546156 -0.069444701 -0.55794287
-0.092678688 -0.069336362 -0.55856019
-0.017042715 -0.069909342 -0.55700004
0.046187475 -0.069333829 -0.55900002
0.10649523 -0.069095671 -0.55794102
0.17482184 -0.069098406 -0.55696452
0.25148419 -0.068593621 -0.55780381
0.28382942 -0.068400688 -0.55740005
0.077883333 0.0091703907 -0.51863998
0.17893319 0.041599348 -0.51600003
0.036908433 0.10780559 -0.55449998
0.13482903 0.073544182 -0.53900003
