# .PCD v0.7 - Point Cloud Data file format
VERSION 0.7
FIELDS x y z
SIZE 4 4 4
TYPE F F F
COUNT 1 1 1
WIDTH 823
HEIGHT 1
VIEWPOINT 0 0 0 1 0 0 0
POINTS 823
DATA ascii
-0.37541312 -0.48709011 -1.488
-0.32113096 -0.42828816 -1.4842669
-0.37326488 -0.48021588 -1.4670001
-0.37358591 -0.47504979 -1.4560001
-0.31570324 -0.4317866 -1.4630001
-0.11144084 -0.44562098 -1.4620001
-0.52447045 -0.45591807 -1.4160001
-0.37771893 -0.47092551 -1.4177502
-0.36350128 -0.4465048 -1.4166669
-0.52218455 -0.45272937 -1.4037501
-0.38244408 -0.4667407 -1.4043335
-0.52341723 -0.44871804 -1.3890001
-0.61733121 -0.36478552 -1.3435001
-0.47227141 -0.32945886 -1.3290001
-0.032922372 -0.33696374 -1.2956668
-0.38298672 -0.36960453 -1.272143
0.25881907 0.33910206 -1.2655001
-0.45241225 -0.42775935 -1.2348751
-0.44874689 -0.43009177 -1.233
-0.23906285 -0.39386237 -1.2440001
-0.37887117 -0.36268178 -1.2470001
-0.30093926 -0.24683391 -1.2570001
-0.29871476 -0.24722664 -1.2590001
-0.38326538 -0.39088839 -1.202
-0.30181527 -0.22591361 -1.217
-0.030199029 -0.2270274 -1.223
-0.021858055 -0.22585875 -1.2188463
-0.37509358 -0.39273164 -1.1816667
-0.35051727 -0.37823379 -1.1786668
0.12206805 -0.2965149 -1.1782501
-0.51264274 -0.35450548 -1.159
-0.46588999 -0.3305572 -1.1450001
-0.46507618 -0.32752559 -1.143
0.13625528 -0.27896294 -1.1468334
0.18433121 -0.27199164 -1.1680001
0.16923359 -0.26086417 -1.1506001
-0.22618835 0.048852652 -1.164
-0.11696984 -0.38428083 -1.1140001
0.1777211 -0.34459674 -1.1110001
0.19310063 -0.34309542 -1.1149001
0.21098737 -0.34108487 -1.123
0.071196236 -0.27139908 -1.1240001
0.12854423 -0.29421875 -1.1190001
-0.064526014 -0.24544294 -1.1130002
-0.05654709 -0.24689199 -1.1207144
0.0714496 -0.26994291 -1.128
-0.24191055 -0.23222086 -1.1155001
-0.23870265 -0.23022409 -1.1145
0.20844762 -0.36148557 -1.0806668
0.21218443 -0.36049002 -1.08
-0.068064302 -0.33323467 -1.08375
0.14150199 -0.35041702 -1.0913572
0.16611165 -0.35379934 -1.0860667
0.19874278 -0.35224336 -1.0922502
0.21363872 -0.35143897 -1.0815002
-0.1813817 -0.27293462 -1.0853333
-0.064210914 -0.24244761 -1.1075001
-0.24104041 -0.22668156 -1.1060001
0.15700904 0.27575228 -1.0833335
-0.032367684 -0.37025106 -1.0556666
0.023710113 -0.36200649 -1.0648751
0.044453572 -0.36326987 -1.0606209
0.070730969 -0.36408502 -1.0605884
0.11758849 -0.37083921 -1.0582501
0.13540475 -0.36224174 -1.0620668
0.16628361 -0.36294842 -1.0618334
0.19882764 -0.37276071 -1.0592259
0.21477768 -0.36607158 -1.0668292
-0.42943302 -0.33364466 -1.0610001
-0.23356713 -0.3440401 -1.051
-0.068219163 -0.33173847 -1.077
0.020291641 -0.35788038 -1.0647274
0.043180496 -0.35642076 -1.0690513
0.070936695 -0.3554849 -1.0684774
0.13940512 -0.35602015 -1.0731429
0.16856404 -0.35715708 -1.075613
0.18668438 -0.3559337 -1.0741111
0.22097039 -0.34846151 -1.0661176
-0.064057216 -0.32320613 -1.0716667
-0.25416914 -0.22779277 -1.0732001
0.15781888 0.27772987 -1.0730001
0.020890644 -0.3945671 -1.024
0.046130043 -0.39031327 -1.0480001
0.1121508 -0.39250362 -1.0227144
-0.27486065 -0.38864556 -1.0200001
-0.1159009 -0.38635546 -1.0216668
-0.036457565 -0.37685251 -1.0366155
-0.014776208 -0.36789876 -1.0300871
0.01620193 -0.37202024 -1.0298953
0.0447428 -0.37289053 -1.0351856
0.075934514 -0.37052551 -1.0329499
0.10510676 -0.37024164 -1.0264241
0.13089365 -0.3669998 -1.0350537
0.17258133 -0.3725259 -1.0432256
0.20048262 -0.3767513 -1.0395998
0.21688026 -0.36736175 -1.0303954
0.29664335 -0.36939681 -1.0243126
0.30330184 -0.36571288 -1.0273335
-0.42295709 -0.33310083 -1.0450001
-0.23380442 -0.33911085 -1.0445001
-0.0072243246 -0.35814875 -1.033125
0.011948301 -0.35594448 -1.0330416
0.082299665 -0.35081354 -1.0407333
0.091068394 -0.35868573 -1.0220001
0.12369696 -0.35761487 -1.0380001
0.22427931 -0.3505207 -1.0359524
-0.30681178 -0.30450639 -1.0280001
-0.27949962 -0.39032853 -1.013
0.025087664 -0.3914845 -1.016
0.11256597 -0.39225516 -1.0180001
-0.27830124 -0.38159424 -1.010643
-0.10754383 -0.38379577 -1.0117897
-0.035053268 -0.38205758 -1.0112858
-0.015064288 -0.37831217 -1.010357
0.013405623 -0.38253525 -1.0080003
0.046549708 -0.37969559 -0.99852204
0.069883741 -0.38074294 -1.0032047
0.11210019 -0.38018057 -1.0151608
0.13683657 -0.38389429 -1.0036858
0.1576871 -0.38270596 -1.0083954
0.2080766 -0.37520391 -1.0147501
0.22171764 -0.36643094 -1.0108333
0.26100937 -0.36752677 -0.9922958
0.27960163 -0.3673929 -1.0041428
0.3126393 -0.36360374 -1.0001364
0.094497003 -0.35802925 -1.0164
0.22382557 -0.34795201 -1.00175
0.2668682 -0.35504514 -0.99338472
0.28793287 -0.3438659 -0.99941134
0.31202921 -0.34654877 -1.0026666
-0.30710915 -0.30263609 -1.018
0.23016723 -0.31807908 -0.99716675
0.29158184 -0.32766956 -0.99585712
0.30861327 -0.3265847 -0.9981429
0.039285898 -0.37258661 -0.98900002
0.2363154 -0.36996949 -0.98096156
0.2522864 -0.37157255 -0.98557967
0.27181596 -0.37046307 -0.98900002
-0.33344635 -0.34016642 -0.96671438
-0.32739574 -0.33762786 -0.96200007
0.23079938 -0.34497383 -0.9743284
0.25378603 -0.34328222 -0.97399998
0.27473801 -0.34322375 -0.98576677
0.31915289 -0.33810243 -0.98500007
0.2329734 -0.31742439 -0.97330421
0.2541821 -0.31362617 -0.96431601
0.28095272 -0.31586009 -0.97332764
0.312038 -0.32237291 -0.97066671
0.22785594 -0.28555468 -0.96869624
0.25363094 -0.28610265 -0.96388912
0.27112314 -0.29548794 -0.96266669
0.063998342 -0.24833684 -0.96150005
0.23877728 -0.26878765 -0.96700007
0.24527785 -0.26743576 -0.96400011
-0.12616257 -0.23003618 -0.9842
-0.028494166 -0.18564293 -0.98300004
-0.33601451 -0.17309755 -0.96600008
-0.36096907 0.0011567665 -0.98600006
-0.35921589 0.0011579397 -0.98700005
-0.32453236 -0.33841702 -0.9530834
-0.19954397 -0.33381721 -0.93400002
0.23431642 -0.33995232 -0.95535725
0.24163437 -0.33510774 -0.95775008
-0.30654913 -0.30545658 -0.93733346
0.23989061 -0.3201018 -0.95900005
0.25358129 -0.31155711 -0.95850003
0.28887343 -0.3032954 -0.94980001
0.31507874 -0.31106311 -0.94335097
-0.30404174 -0.29409868 -0.94087505
-0.14166851 -0.29343441 -0.94933337
0.26577577 -0.27518335 -0.95503712
0.28492349 -0.28493533 -0.94708002
0.31272778 -0.28503707 -0.93830603
0.33113572 -0.2932989 -0.93854553
0.011027923 -0.25794804 -0.93400013
0.26103339 -0.26167852 -0.95040947
0.2861999 -0.25815025 -0.94649762
0.30854192 -0.25572979 -0.9388575
-0.30740654 -0.21194537 -0.94500005
0.31017587 -0.23792848 -0.93350005
-0.30909616 -0.20874241 -0.94520009
-0.0250415 0.063197501 -0.93300003
-0.31072032 -0.30563432 -0.92172933
0.32487789 -0.3018648 -0.92825007
-0.30762088 -0.2889232 -0.92087501
-0.092486352 -0.29191652 -0.91723084
-0.089627638 -0.29405314 -0.92250001
0.32400745 -0.27960205 -0.92500013
-0.32103512 -0.26714796 -0.90780002
-0.27014223 -0.25826305 -0.91500002
-0.2680006 -0.26136833 -0.91216677
0.010549745 -0.25249454 -0.92700005
0.32031712 -0.25388643 -0.91953844
0.3331584 -0.2654421 -0.92633337
0.31952548 -0.2357108 -0.91691911
0.43292004 -0.23776488 -0.92700005
-0.17059591 0.055650007 -0.91420001
-0.023313019 0.049652442 -0.90500003
0.11112414 0.052736096 -0.90800005
-0.17638448 0.060538303 -0.92300004
-0.28569749 -0.32299846 -0.89300007
-0.25356275 -0.26478666 -0.87800002
-0.15758204 0.043211315 -0.8768
-0.023136951 0.046366561 -0.898
0.10663696 0.045587823 -0.87900001
0.29326093 -0.33098936 -0.85900003
0.29522905 -0.31695291 -0.84920019
0.30378601 -0.31162989 -0.84455258
0.30910993 -0.29037383 -0.8509869
-0.23834097 -0.26133862 -0.85319996
0.31508526 -0.25014785 -0.84757143
-0.37239099 -0.21629064 -0.86500007
0.31627119 -0.2345704 -0.84346676
0.11542665 -0.19143717 -0.85558337
0.40818104 -0.022322433 -0.84688246
0.42401993 -0.025251197 -0.85075003
-0.16141069 0.029185234 -0.84180003
-0.017834783 0.028604388 -0.84209096
-0.33358014 0.052120455 -0.86550009
-0.15521221 0.034002401 -0.85062504
-0.14979593 0.034088019 -0.85600007
-0.018617 0.033004563 -0.84587497
0.10617582 0.037343401 -0.86000013
0.22461985 0.15630284 -0.86100006
0.27950644 -0.31529331 -0.83533335
0.30587393 -0.3147746 -0.83731586
0.31166291 -0.27980387 -0.82653362
-0.11111663 -0.26570851 -0.82800007
0.31592152 -0.25420791 -0.8227393
0.31983566 -0.2347977 -0.82826656
0.14121689 -0.20428838 -0.81700003
-0.2609759 -0.14742714 -0.81300002
0.41585556 -0.035473235 -0.82422215
0.42368042 -0.037308484 -0.82794124
0.3887077 -0.017833255 -0.83425003
0.40497625 -0.023446215 -0.83531255
0.42466733 -0.029358305 -0.83100009
-0.30156642 0.023140203 -0.82245463
-0.29737815 0.021694046 -0.81863159
-0.18248603 0.024470391 -0.81885195
-0.16548064 0.025018819 -0.82819539
-0.14689955 0.022309922 -0.8278572
-0.018289279 0.023580961 -0.83057153
0.10123207 0.020355355 -0.82000005
0.26033899 0.025120342 -0.82395023
-0.29278746 0.054700915 -0.83400005
-0.18140794 0.036597889 -0.81237519
-0.17640357 0.045209236 -0.81964386
0.2602421 0.031063262 -0.82450008
-0.28962788 0.070053436 -0.82500005
-0.18096565 0.078517161 -0.83038467
-0.17839681 0.073527426 -0.82058626
-0.30280405 0.092977434 -0.83200002
-0.29526559 0.099969864 -0.81975007
-0.18162414 0.090895757 -0.83750004
-0.19829755 0.23589596 -0.83200002
-0.19813274 -0.28620791 -0.78200006
0.31180397 -0.27524492 -0.80900002
-0.30992305 -0.26708862 -0.79725015
0.32108837 -0.2455817 -0.80719048
-0.19626443 -0.22722144 -0.78125
-0.07711637 -0.23447318 -0.79122227
0.32491845 -0.2347196 -0.80278581
-0.01760345 -0.19557166 -0.78080004
0.10081051 -0.18450651 -0.7803334
0.29722381 -0.19934008 -0.78875005
0.069936298 -0.15715127 -0.78685719
-0.30703852 0.013299066 -0.79366672
-0.27841175 0.022400562 -0.7968387
-0.25435814 0.019566033 -0.78778881
-0.22690925 0.017495668 -0.78449196
-0.196577 0.021473251 -0.79457146
-0.16815327 0.014214784 -0.79852384
-0.12869686 0.011964905 -0.78634149
-0.11856027 0.010976235 -0.78100008
-0.019855022 0.011974767 -0.79061621
0.10044129 0.0109802 -0.79187506
0.26086935 0.01395504 -0.78754371
0.27226529 0.01484226 -0.78517878
-0.27463832 0.041173503 -0.79507893
-0.2591843 0.039965659 -0.78307956
-0.21826756 0.037938476 -0.78081948
-0.19359145 0.044434067 -0.79153877
-0.17930208 0.053657331 -0.80760002
-0.27183998 0.069903709 -0.78637505
-0.2677016 0.063014954 -0.78166676
-0.18633088 0.072702572 -0.788912
-0.17876187 0.079709992 -0.79804885
-0.27908757 0.10106685 -0.78616679
-0.18223466 0.10032874 -0.78277528
-0.17627263 0.10476509 -0.78819019
-0.18045388 0.12830359 -0.78245461
-0.1764697 0.134105 -0.79012364
-0.29039013 0.16752689 -0.78220004
-0.17571063 0.16403729 -0.78532749
-0.17819408 0.18875796 -0.79304999
-0.19982278 -0.28109887 -0.76984864
-0.297019 -0.26311576 -0.76850003
-0.1514761 -0.26397172 -0.77100003
-0.19152792 -0.22604874 -0.76820004
0.014337086 -0.21371822 -0.75588894
-0.020763241 -0.19436195 -0.77400005
0.015319064 -0.20874822 -0.75100005
0.10023148 -0.18117251 -0.778
0.29042503 -0.19221705 -0.76200002
-0.12918851 -0.15924981 -0.76991993
0.069415145 -0.15297025 -0.77900004
-0.23078439 -0.14200816 -0.76500005
-0.25081581 -0.0020190389 -0.75704169
-0.2225906 -0.00098781183 -0.75592315
-0.19401744 -0.0025673634 -0.75628257
-0.16952221 -0.0023532056 -0.75677776
-0.14785758 -0.0013026095 -0.77083337
-0.10348306 -0.0022334536 -0.75605005
-0.07067059 -0.00203326 -0.75225818
-0.046148356 -0.0038811159 -0.75298721
-0.01648207 -0.002516761 -0.75871158
0.097587414 -0.0018777187 -0.75570589
0.25470251 -0.0012081414 -0.75458336
0.27732456 -0.0007321157 -0.75166672
0.3657369 -0.0098305009 -0.76900005
-0.3004964 0.0059236768 -0.77750003
-0.29472464 0.0040000519 -0.76787502
-0.26006603 0.0038747396 -0.77221429
-0.22220886 0.01427741 -0.77166355
-0.19782029 0.0039750431 -0.76430875
-0.1553099 0.0029123481 -0.77520007
-0.13398355 0.0096727693 -0.77485287
-0.10673724 0.012432157 -0.75957078
-0.071088299 0.0025405053 -0.75147063
-0.04251457 0.01358616 -0.76013267
-0.019558495 0.0077358452 -0.77036101
0.099987924 0.0023453033 -0.76575005
0.23757164 0.0029656694 -0.75572729
0.25418374 0.0050513702 -0.76612765
0.27846673 0.0067311572 -0.76595724
-0.24944146 0.049068976 -0.77315325
-0.22608113 0.046612129 -0.77251065
-0.20520884 0.054911029 -0.77521276
-0.12276908 0.043221984 -0.76888889
-0.11394411 0.04083696 -0.75792766
-0.035244808 0.043236755 -0.75674438
-0.027224159 0.046325464 -0.75952375
-0.27242574 0.08921966 -0.77600002
-0.2530525 0.075083472 -0.76504111
-0.22466661 0.074619621 -0.76169872
-0.20015723 0.076359287 -0.76956296
-0.12358567 0.079919748 -0.76553571
-0.11800481 0.074313164 -0.75315619
-0.032666933 0.067267261 -0.7517392
-0.027644746 0.073334128 -0.7555908
-0.27255952 0.10442843 -0.77142107
-0.25574589 0.10311121 -0.75888628
-0.22554114 0.098453559 -0.75326222
-0.19543619 0.10511567 -0.7634244
-0.16875306 0.10057648 -0.76900005
-0.11997374 0.091061503 -0.75000006
-0.026701307 0.10409929 -0.75557697
-0.27453446 0.14189085 -0.764
-0.26368129 0.13134907 -0.75266659
-0.18987712 0.13403462 -0.75928789
-0.17885129 0.14297393 -0.77274078
-0.27507472 0.15227066 -0.75980002
-0.26806912 0.1514511 -0.75133342
-0.18379483 0.16247848 -0.7545498
-0.178179 0.16556177 -0.76788741
-0.095919594 0.15975806 -0.76800007
-0.040731754 0.15452613 -0.75125009
-0.18073973 0.18887116 -0.75089997
-0.17749023 0.1950326 -0.75995612
-0.16939797 -0.22569269 -0.74162501
0.28789997 -0.18761173 -0.73064208
-0.22099204 -0.15308788 -0.73986679
0.28778511 -0.17673683 -0.7295714
-0.22348255 -0.14882436 -0.7470001
-0.15148342 -0.13819583 -0.73260009
-0.14704996 -0.13668783 -0.72999996
-0.28370699 -0.0086177811 -0.73625934
-0.26203331 -0.012003223 -0.73200005
-0.22978111 -0.0086539192 -0.73270148
-0.18674143 -0.010163506 -0.72933328
-0.16152138 -0.0097597037 -0.73216003
-0.13456196 -0.010412308 -0.7327522
-0.10271693 -0.011836089 -0.7275334
-0.074796081 -0.0083178254 -0.73833132
-0.042660225 -0.009453062 -0.73542869
-0.016339259 -0.010055888 -0.73325235
0.0046285293 -0.0069046561 -0.7313478
0.0834333 -0.011303911 -0.72330433
0.096722953 -0.0084731663 -0.73444122
0.23302826 -0.0072795707 -0.73438108
0.25460902 -0.0071359575 -0.73054558
0.27492878 -0.006347009 -0.73396301
-0.2847366 0.00087402738 -0.745
-0.095274627 0.021286599 -0.74585229
-0.075072601 0.01634676 -0.74368554
-0.055192333 0.022386512 -0.74623364
-0.10035251 0.047032718 -0.74040908
-0.074697956 0.044982802 -0.7331723
-0.050082501 0.046251692 -0.74158359
-0.022228194 0.044039566 -0.74466676
0.0027110847 0.043464541 -0.72175008
-0.14457399 0.064586312 -0.72400004
-0.10210726 0.074955158 -0.73233336
-0.073173843 0.071209565 -0.72464752
-0.046225794 0.075786479 -0.73371327
-0.029164087 0.088637456 -0.74766672
-0.24650143 0.11544198 -0.74686539
-0.22390118 0.11229353 -0.74682719
-0.20748544 0.11611966 -0.74710524
-0.15959245 0.097113028 -0.74700004
-0.10833436 0.10191421 -0.72867507
-0.083018608 0.091747753 -0.72000003
-0.040455606 0.10283472 -0.72811925
-0.028800381 0.1054142 -0.74577141
-0.250848 0.13634045 -0.74365616
-0.22527087 0.13482736 -0.73828548
-0.20407604 0.1369037 -0.74212718
-0.12145301 0.13718662 -0.72985727
-0.11644109 0.13389194 -0.72558004
-0.033976395 0.13294668 -0.72354549
-0.027044656 0.13463539 -0.72860628
-0.27141821 0.16703933 -0.74650002
-0.2534157 0.16488442 -0.73286819
-0.22474046 0.16469429 -0.72743136
-0.19793594 0.16599214 -0.73802835
-0.11402827 0.15226062 -0.74217647
-0.040909167 0.15325108 -0.74700004
-0.25161901 0.19080864 -0.72653341
-0.22368519 0.19306254 -0.7268225
-0.19428748 0.19368659 -0.73537642
-0.21810821 0.21136834 -0.74028575
-0.24846485 -0.20137484 -0.69753337
0.056525078 -0.20540738 -0.71150005
0.29413137 -0.18746257 -0.70641237
-0.054578889 -0.15167606 -0.71028578
0.2924161 -0.17102525 -0.70257157
0.3108356 -0.15497805 -0.69100004
-0.053995516 -0.14872515 -0.70833337
0.083060481 -0.14584763 -0.69700003
-0.27422884 -0.01439902 -0.7141667
-0.25484258 -0.020373415 -0.6973573
-0.22502835 -0.018805556 -0.70273167
-0.1978254 -0.018081937 -0.70731878
-0.16881905 -0.018025201 -0.71030092
-0.1382017 -0.021856794 -0.69943058
-0.10533767 -0.019923314 -0.70203716
-0.071667627 -0.019978981 -0.70401943
-0.045912404 -0.018834198 -0.70836419
-0.017253485 -0.020583622 -0.70437908
0.017905459 -0.013229379 -0.70473695
0.044581577 -0.011687591 -0.69901359
0.072628401 -0.013767122 -0.70475781
0.098619685 -0.017509913 -0.70357913
0.2087529 -0.019941898 -0.69033337
0.22728495 -0.018625421 -0.70215809
0.25490057 -0.016934142 -0.70666903
0.27217695 -0.014618522 -0.7128334
0.016464394 0.014390877 -0.70087957
0.046721697 0.0065635075 -0.69349688
0.069756322 0.014005349 -0.69946748
0.11015107 0.0030110388 -0.6997273
0.2685807 0.0089975391 -0.69300008
0.27046105 0.0067747687 -0.69400001
-0.0020694225 0.057490528 -0.7104286
0.010122315 0.044104375 -0.6985693
0.076214097 0.041125793 -0.69953793
0.10905211 0.046805441 -0.69100004
-0.090313658 0.084209979 -0.71900004
-0.078966387 0.08409857 -0.71768659
-0.0022848155 0.060881227 -0.70980006
0.0060685864 0.063092172 -0.69653583
0.080838755 0.066493779 -0.69331998
0.13677825 0.084231973 -0.69997603
0.16530369 0.082326621 -0.70367193
0.18546028 0.081305981 -0.69538963
-0.096843801 0.10948782 -0.71575159
-0.074621789 0.10532389 -0.7126745
-0.053181395 0.10913344 -0.71543491
0.0073733008 0.10127189 -0.69550002
0.079777174 0.095058799 -0.69125003
0.13847993 0.090891123 -0.70044452
0.16288847 0.091606334 -0.70464289
0.18284869 0.092093743 -0.69688243
-0.10270586 0.12984405 -0.71155608
-0.074838087 0.12773718 -0.70340675
-0.048765574 0.13182193 -0.71147096
-0.022680981 0.14730613 -0.71428573
0.021226631 0.13187554 -0.70187509
0.034694213 0.13826369 -0.70700008
-0.021374114 0.15044542 -0.71100003
-0.24712364 0.19679138 -0.71858329
-0.22621317 0.1993432 -0.7170943
-0.11546252 -0.24018157 -0.66800004
0.26286715 -0.24235366 -0.66140008
-0.23441027 -0.21149729 -0.66500008
-0.11619685 -0.23803048 -0.66400003
0.26287937 -0.23872226 -0.66000003
-0.23120268 -0.20814438 -0.66100001
-0.056316264 -0.19668436 -0.66400003
0.03299645 -0.18817729 -0.66333342
0.29868099 -0.18364139 -0.6884445
0.30253693 -0.18274982 -0.68694448
-0.07316573 -0.16455381 -0.68150008
0.29746851 -0.16583072 -0.68491554
0.30387571 -0.16409247 -0.67924666
-0.22324315 -0.12912771 -0.67733335
0.11385751 -0.12095192 -0.66700006
0.11260483 -0.11915702 -0.66979998
-0.25055322 -0.032923393 -0.66957903
-0.21752723 -0.031398058 -0.67122227
-0.19348028 -0.031894576 -0.6702143
-0.17444144 -0.033312533 -0.66603035
-0.13288216 -0.0329636 -0.66417778
-0.10948223 -0.033261321 -0.66648972
-0.067825839 -0.032767296 -0.66457564
-0.043215226 -0.033117794 -0.66632819
-0.014627297 -0.033452164 -0.66776276
0.01586527 -0.03359912 -0.66598988
0.044937842 -0.033411268 -0.66712111
0.074167527 -0.032980092 -0.66675884
0.10371419 -0.033043891 -0.66433674
0.12349822 -0.031695653 -0.66112506
0.20021272 -0.031683959 -0.66393536
0.22552022 -0.031520009 -0.6668334
0.25356174 -0.032217029 -0.6639815
0.3169452 -0.031101128 -0.66284001
0.33011514 -0.030725218 -0.66700006
-0.25040388 -0.026762063 -0.6834445
-0.22503665 -0.026746543 -0.68244451
-0.19844986 -0.027337333 -0.68112326
-0.17040436 -0.026583154 -0.68115562
-0.12936486 -0.026486931 -0.68182617
-0.10293759 -0.026688803 -0.68232191
-0.080991954 -0.026979027 -0.68207324
-0.045543503 -0.027385507 -0.6821751
-0.014803343 -0.02749069 -0.68263233
0.011376057 -0.028125724 -0.67947912
0.04609349 -0.026375314 -0.68032449
0.074624345 -0.02688266 -0.68196237
0.10955242 -0.018331826 -0.6734482
0.12206962 -0.027310334 -0.66107148
0.19980127 -0.023182042 -0.66870129
0.22538282 -0.026489506 -0.67931366
0.25377193 -0.026572172 -0.67829782
0.31817988 -0.027673086 -0.6709286
0.33063313 -0.028683534 -0.66949999
0.02720228 0.021799412 -0.68853331
0.043508727 0.020397121 -0.68450725
0.062584661 0.024079012 -0.68727279
0.11017097 0.013642789 -0.66593534
0.2014394 0.01101062 -0.66300005
0.26412708 0.0048636906 -0.66616678
0.022767274 0.04707481 -0.68131256
0.045147717 0.045034308 -0.67723101
0.065907277 0.047341116 -0.6823743
0.10894208 0.03944654 -0.66286957
0.018718448 0.075551488 -0.67481059
0.044991046 0.074854769 -0.66687298
0.069499709 0.075249851 -0.67726707
0.11368866 0.08023417 -0.67708588
0.12048423 0.087289751 -0.68850005
0.19738503 0.081795692 -0.67616922
0.021092139 0.10447562 -0.67346829
0.044462197 0.10487457 -0.66814095
0.069244027 0.10144307 -0.6773079
0.18874215 0.09149152 -0.68675005
0.018150253 0.1243945 -0.67869395
0.03929323 0.12277823 -0.66808689
0.063632779 0.12414036 -0.67646164
0.26355872 -0.24469642 -0.64919698
0.26685071 -0.23184489 -0.64002103
0.27312917 -0.21470308 -0.63637084
-0.22431923 -0.20242135 -0.65600002
0.27830476 -0.19733931 -0.63562876
-0.15950495 -0.15733124 -0.65450001
-0.061251469 -0.16337495 -0.63072735
-0.055796467 -0.16602606 -0.63483346
-0.0099973595 -0.16146965 -0.65453857
0.29679698 -0.15897422 -0.63613343
0.30079848 -0.15480393 -0.64009094
0.30756786 -0.14148472 -0.64295596
-0.24203616 -0.041810043 -0.63692868
-0.22604448 -0.040088229 -0.64170873
-0.19727506 -0.039722379 -0.64362782
-0.16591726 -0.041697111 -0.64293522
-0.13538918 -0.040181641 -0.64656407
-0.10415637 -0.040204309 -0.64839733
-0.075846717 -0.041215893 -0.64269692
-0.043983296 -0.041389696 -0.64482725
-0.016201252 -0.042169467 -0.64057958
0.013197621 -0.041553672 -0.6432234
0.047350116 -0.04182658 -0.64087558
0.075067282 -0.040409409 -0.64477658
0.10623769 -0.04096777 -0.64365047
0.13484399 -0.038094789 -0.64478838
0.16481818 -0.038073953 -0.64286631
0.19432205 -0.038509991 -0.64423013
0.22439548 -0.038873676 -0.64467233
0.25573954 -0.038296189 -0.64098263
0.28337374 -0.038088467 -0.63646436
0.31296995 -0.037534557 -0.6430968
0.33117694 -0.03657965 -0.64400005
0.11868534 -0.0097082295 -0.65817261
0.13522919 -0.014451423 -0.64752817
0.1643663 -0.014949017 -0.64194924
0.1871606 -0.01302101 -0.65085262
0.26382688 -0.014455899 -0.64042944
0.2815567 -0.017861178 -0.63322365
0.1159692 0.01719396 -0.65399277
0.13371405 0.014144153 -0.63778937
0.16617244 0.010818305 -0.63315094
0.18837319 0.015663449 -0.64130121
0.26105529 0.01125216 -0.63666165
0.28145808 0.011765433 -0.64173692
0.11393301 0.045930743 -0.64539212
0.12568967 0.041507326 -0.6324712
0.17878506 0.03094995 -0.63000005
0.19193751 0.041273352 -0.63490164
0.26212424 0.038862213 -0.63349998
0.27319029 0.046301693 -0.63337499
0.11245348 0.065384798 -0.64248973
0.12145504 0.061636146 -0.6302501
0.19706075 0.066320434 -0.63503039
0.21038347 0.074560978 -0.64250004
0.0519353 0.11920889 -0.6566667
0.045987252 0.12104748 -0.65900004
-0.20599517 -0.24082461 -0.625
0.26277846 -0.24120995 -0.62600005
-0.19778152 -0.23508319 -0.61703712
-0.13576221 -0.22660364 -0.61364704
0.26726639 -0.22725317 -0.61422521
0.27234814 -0.21404898 -0.6134547
-0.18760511 -0.20882064 -0.60049999
0.27959338 -0.19549453 -0.61377406
-0.16861573 -0.15249486 -0.62325001
-0.09742941 -0.17608735 -0.60100001
-0.060100671 -0.16470772 -0.62900001
-0.052593835 -0.16235995 -0.62254554
-0.028500179 -0.15430598 -0.6006
0.28907102 -0.16527663 -0.61031359
0.30262196 -0.15303959 -0.60425007
0.018435698 -0.14162023 -0.60040003
0.090294331 -0.12099924 -0.62300003
0.29634207 -0.14464374 -0.6074152
0.30366594 -0.13258246 -0.60385466
-0.1883425 -0.11646139 -0.60633337
-0.027815925 -0.11548096 -0.60975003
0.090221867 -0.11889773 -0.62250006
-0.23772408 -0.061718002 -0.62550002
-0.2221977 -0.050589297 -0.61621296
-0.19368699 -0.051097848 -0.61320347
-0.16243859 -0.051790707 -0.61114001
-0.13443977 -0.051476039 -0.61283255
-0.10609575 -0.051239777 -0.61364877
-0.076996885 -0.051247183 -0.61346847
-0.045781244 -0.052223492 -0.61267865
-0.01795904 -0.051403828 -0.61472875
0.015847519 -0.051365811 -0.61392599
0.04496574 -0.051591005 -0.61434364
0.075569376 -0.051031012 -0.61399561
0.10493359 -0.050507482 -0.61271846
0.13601069 -0.049724769 -0.61442471
0.16406207 -0.050460171 -0.61285567
0.19369239 -0.050018191 -0.6133678
0.22422175 -0.050233316 -0.6126858
0.25630865 -0.048875228 -0.61508626
0.28533348 -0.04865871 -0.6144644
0.30901378 -0.046744078 -0.61722225
0.23329531 -0.0016516317 -0.61420006
0.26777372 -0.0016238824 -0.62800002
0.27757061 -0.0081313932 -0.62744683
0.14534557 0.026097681 -0.6262728
0.16078362 0.023741042 -0.62691021
0.26347104 0.019453648 -0.62070602
0.28118536 0.01615455 -0.61904341
0.13943861 0.046804029 -0.62292397
0.16418488 0.044935279 -0.61952901
0.18462546 0.049984172 -0.62575012
0.26495132 0.035741545 -0.62275243
0.27820501 0.036893252 -0.6173631
0.11943105 0.066187724 -0.62849998
0.1295317 0.062635221 -0.62494457
0.16575013 0.06153442 -0.61390197
0.18766968 0.063102931 -0.62520838
0.071711287 0.11566775 -0.62425005
0.22623989 0.16191119 -0.61200011
-0.21246517 -0.21680428 -0.5855
-0.19351806 -0.22141916 -0.59726679
0.26788241 -0.22442104 -0.5949434
0.28053454 -0.2179994 -0.5879221
-0.20207307 -0.20021729 -0.58514291
0.28624299 -0.19532524 -0.5849697
-0.032279063 -0.15223658 -0.59809095
0.29354101 -0.16889802 -0.58921444
0.30046743 -0.15371151 -0.58622229
-0.19948575 -0.14208864 -0.58695
-0.17469434 -0.12878262 -0.58017647
-0.033577293 -0.14886871 -0.59690011
0.015155557 -0.14377075 -0.59810007
0.11688181 -0.1241684 -0.57000005
0.29752287 -0.14215395 -0.5974524
0.30303892 -0.13605691 -0.59366316
-0.17736825 -0.11962157 -0.57166672
-0.097437583 -0.10805602 -0.583
0.11023146 -0.11081006 -0.59350002
0.29010063 -0.11068252 -0.57133329
-0.21384677 -0.063586935 -0.57700014
-0.1955781 -0.063019961 -0.57910925
-0.16445407 -0.06361109 -0.57974249
-0.13335036 -0.063564524 -0.57981163
-0.10334679 -0.063596904 -0.57825905
-0.074930891 -0.063477121 -0.57904458
-0.045949817 -0.06328132 -0.57919973
-0.01488364 -0.063163221 -0.57980561
0.015510989 -0.063456468 -0.58043104
0.044667117 -0.063514993 -0.57946295
0.075975642 -0.063054428 -0.57847345
0.10484681 -0.063164264 -0.5774433
0.13531679 -0.062502116 -0.57584429
0.16447164 -0.062692337 -0.57706457
0.19507514 -0.06278602 -0.57740492
0.22460276 -0.062903158 -0.5760085
0.25376168 -0.062877089 -0.57685626
0.28262204 -0.062007114 -0.57554173
-0.21534008 -0.059304416 -0.5893333
-0.19699526 -0.058284804 -0.59098679
-0.16399291 -0.05821443 -0.59269142
-0.13344385 -0.05784544 -0.59633863
-0.10148085 -0.057858225 -0.59491533
-0.074759267 -0.057751782 -0.59436756
-0.045354854 -0.058751166 -0.59348434
-0.01444247 -0.058129221 -0.59640574
0.015146425 -0.058331497 -0.59473062
0.046402398 -0.058443453 -0.59322983
0.07554432 -0.058200784 -0.59370363
0.1048803 -0.057560891 -0.59281749
0.13410017 -0.057367671 -0.59187669
0.16487223 -0.057577614 -0.58999085
0.19455211 -0.057463374 -0.59047741
0.22573274 -0.057556652 -0.59255379
0.25477257 -0.056884475 -0.59189588
0.28495988 -0.056263667 -0.59240669
0.30176049 -0.05584538 -0.59100014
-0.00061624096 0.029020496 -0.574
0.00061463058 0.028330564 -0.57249999
-0.0025365367 0.040222213 -0.59066671
0.1317113 0.080093578 -0.58700001
0.2692973 0.090644583 -0.574
0.22123049 0.1645935 -0.574
-0.2023482 -0.21140662 -0.56600004
0.28690165 -0.21378785 -0.56421751
0.29142734 -0.20268925 -0.56818753
-0.18591528 -0.16513684 -0.55150002
-0.15002353 -0.17938533 -0.54800004
0.02396445 -0.17172094 -0.54733342
-0.17287704 -0.12150705 -0.56900001
0.11245807 -0.12299894 -0.56416672
0.20831941 -0.12273196 -0.54049999
0.22146779 -0.1231014 -0.54704458
0.25258717 -0.12124056 -0.56063163
-0.056651227 -0.11500037 -0.54400003
0.12340708 -0.1119693 -0.55800003
0.2085482 -0.11758721 -0.54027271
0.22776158 -0.10750854 -0.54489416
0.25483644 -0.10467985 -0.55496812
0.28020087 -0.10253239 -0.56442398
-0.21230359 -0.068801418 -0.56760001
-0.19290757 -0.071174264 -0.55477685
-0.16326867 -0.071979299 -0.55559909
-0.13485585 -0.071881287 -0.55518413
-0.10454179 -0.071949176 -0.55520511
-0.075739808 -0.072427496 -0.55355197
-0.043358326 -0.07206481 -0.55478114
-0.015582004 -0.072736762 -0.55303258
0.014717936 -0.072456233 -0.55401647
0.04596287 -0.071532041 -0.55564076
0.074274667 -0.071392827 -0.55477643
0.1053189 -0.071191952 -0.55378109
0.13505754 -0.070250794 -0.55600387
0.16530536 -0.070988894 -0.55403292
0.1945958 -0.070545629 -0.55413491
0.22643633 -0.072389364 -0.55384892
0.25461921 -0.076083213 -0.55141491
0.27924106 -0.075437829 -0.5583424
0.080024362 0.043428652 -0.56900001
0.036908433 0.10780559 -0.55449998
-0.037297253 0.12148469 -0.56333333
-0.010434896 -0.17239361 -0.52729732
0.0030576489 -0.17329638 -0.53205878
-0.16456333 -0.1257437 -0.52779996
-0.078813888 -0.12356395 -0.53224999
-0.037543464 -0.13799085 -0.53800005
0.020178197 -0.13252422 -0.51867318
0.079395339 -0.12834924 -0.51775014
0.14284413 -0.13033661 -0.51590258
0.16436093 -0.12664503 -0.52390712
0.1935468 -0.12498554 -0.53557396
0.21818526 -0.12419262 -0.537
-0.080986306 -0.11826821 -0.53500003
0.021063311 -0.1180478 -0.52550006
0.14818829 -0.11855013 -0.51381814
0.16783789 -0.10678316 -0.51879388
0.19452374 -0.10466708 -0.52963454
0.21694508 -0.09771435 -0.53712511
-0.1889645 -0.079839788 -0.53019387
-0.16507916 -0.081404224 -0.5265215
-0.13459271 -0.082040355 -0.52714103
-0.10513472 -0.081507497 -0.52657777
-0.07566765 -0.082054265 -0.52503371
-0.045416281 -0.081820928 -0.52597284
-0.014512931 -0.082645796 -0.52348906
0.015478346 -0.082167417 -0.52375752
0.044327658 -0.081785418 -0.52526933
0.075316049 -0.080923162 -0.52544099
0.10369457 -0.080688044 -0.52577186
0.13544323 -0.079821475 -0.52643001
0.16772531 -0.081767187 -0.52298844
0.19400176 -0.082366355 -0.52691901
0.22289376 -0.08128152 -0.53526133
0.07788334 0.0091703897 -0.5186401
0.17893319 0.041599348 -0.51600003
0.13482903 0.073544182 -0.53900003
