# .PCD v0.7 - Point Cloud Data file format
VERSION 0.7
FIELDS x y z
SIZE 4 4 4
TYPE F F F
COUNT 1 1 1
WIDTH 331
HEIGHT 1
VIEWPOINT 0 0 0 1 0 0 0
POINTS 331
DATA ascii
-0.37433898 -0.48365301 -1.4775001
-0.37358588 -0.47504976 -1.4560001
-0.32079172 -0.42850679 -1.4829377
-0.11144084 -0.44562098 -1.4620001
-0.52301377 -0.45306739 -1.4051429
-0.37613687 -0.46615797 -1.4153334
-0.61733121 -0.36478552 -1.3435001
-0.47227141 -0.32945886 -1.3290001
-0.38298675 -0.36960453 -1.272143
-0.032922372 -0.33696374 -1.2956668
0.25881907 0.33910206 -1.2655001
-0.45200503 -0.42801848 -1.2346666
-0.38106829 -0.3767851 -1.2245001
-0.23906285 -0.39386237 -1.2440001
-0.30093926 -0.24683391 -1.2570001
-0.29871476 -0.24722664 -1.2590001
-0.30181527 -0.22591361 -1.217
-0.022453841 -0.22594225 -1.2191429
-0.37509358 -0.39273164 -1.1816667
-0.35051727 -0.37823379 -1.1786668
-0.51264274 -0.35450548 -1.159
-0.46548307 -0.32904139 -1.1440001
0.15377231 -0.27091196 -1.15412
0.18433121 -0.27199164 -1.1680001
-0.22618835 0.048852652 -1.164
-0.11696984 -0.38428083 -1.1140001
0.20938182 -0.36123663 -1.0805
-0.068064295 -0.33323467 -1.0837501
0.15211168 -0.35172716 -1.089452
0.19966105 -0.34976339 -1.0965205
-0.1813817 -0.27293462 -1.0853333
-0.064420976 -0.24444449 -1.1111668
-0.056547094 -0.24689199 -1.1207144
0.071322918 -0.27067101 -1.126
0.12854423 -0.29421875 -1.1190001
-0.24173652 -0.231113 -1.1136
-0.23870265 -0.23022409 -1.1145
0.15700904 0.27575228 -1.0833335
-0.27486065 -0.38864556 -1.0200001
-0.1159009 -0.3863554 -1.0216668
-0.019589808 -0.36959201 -1.0327533
0.031834655 -0.37086824 -1.0379287
0.083696179 -0.36980876 -1.036713
0.15493248 -0.36742395 -1.0471939
0.20823203 -0.37071788 -1.0479068
0.29664335 -0.36939678 -1.0243126
0.30330187 -0.36571294 -1.0273335
-0.42619506 -0.33337274 -1.0530001
-0.30681178 -0.30450639 -1.0280001
-0.23375694 -0.34009671 -1.0458001
-0.065097697 -0.32533923 -1.073
-0.0072243246 -0.35814875 -1.033125
0.025313938 -0.35635149 -1.0509285
0.074112974 -0.35437042 -1.0607669
0.15266211 -0.35657001 -1.0737615
0.21954522 -0.34975335 -1.0560758
-0.25416914 -0.22779277 -1.0732001
0.15781888 0.27772987 -1.0730001
-0.27834252 -0.38189542 -1.0107242
-0.10754383 -0.38379574 -1.0117894
-0.019506281 -0.37914452 -1.0105639
0.029006315 -0.38121361 -1.0035374
0.094257273 -0.38088283 -1.0102116
0.14833108 -0.38323924 -1.0062822
0.22773576 -0.36878458 -0.99674064
0.26228711 -0.36930647 -0.9924714
0.31263933 -0.36360377 -1.0001365
-0.32984769 -0.33571434 -0.97188884
0.094497003 -0.35802922 -1.0164001
0.23057792 -0.33354121 -0.97919774
0.26594067 -0.32856518 -0.97659034
0.31196773 -0.3426871 -0.9989543
0.063998342 -0.24833685 -0.96150005
0.22798434 -0.28535751 -0.96867621
0.25382635 -0.28562549 -0.96385634
-0.12616256 -0.23003621 -0.98420012
-0.028494166 -0.18564293 -0.98300004
-0.33601451 -0.17309755 -0.96600008
-0.36096907 0.0011567665 -0.98600006
-0.35921589 0.0011579397 -0.98700005
-0.31285241 -0.31157869 -0.92884845
-0.19954397 -0.33381721 -0.93400002
0.23468806 -0.33862895 -0.95560002
0.27464324 -0.30835605 -0.95300001
0.31536281 -0.31079656 -0.94291359
-0.30865973 -0.28709963 -0.92343247
-0.26830655 -0.26092473 -0.91257149
-0.14166853 -0.29343444 -0.94933343
-0.091813721 -0.29241925 -0.91847068
0.010810569 -0.2554692 -0.93081826
0.28049105 -0.2714172 -0.94783688
0.31458178 -0.26922038 -0.93300521
-0.30861342 -0.20965756 -0.94514298
0.31861338 -0.23592713 -0.91853666
0.43292004 -0.23776488 -0.92700005
-0.17059588 0.055650007 -0.91420001
-0.023313019 0.049652442 -0.90500003
0.11112414 0.052736096 -0.90800005
-0.17638448 0.060538303 -0.92300004
-0.0250415 0.063197501 -0.93300003
-0.28569749 -0.32299846 -0.89300007
0.29512274 -0.31771162 -0.8497299
0.30378598 -0.3116298 -0.84455281
-0.25356275 -0.26478666 -0.87800002
-0.23834097 -0.26133862 -0.85320008
0.31123671 -0.27605617 -0.84977138
-0.37239099 -0.21629064 -0.86500007
0.11542664 -0.19143717 -0.85558343
0.31627119 -0.23457041 -0.8434667
0.40818101 -0.022322435 -0.84688246
0.4240199 -0.025251197 -0.85075009
-0.33358014 0.052120455 -0.86550009
-0.15659834 0.034818862 -0.85403705
-0.018632019 0.032257054 -0.84803456
0.10629109 0.039404508 -0.86475003
0.22461985 0.15630284 -0.86100006
0.27950644 -0.31529331 -0.83533335
0.30587393 -0.31477457 -0.8373158
-0.30992302 -0.26708865 -0.79725003
-0.19813274 -0.28620791 -0.78200006
-0.11111663 -0.26570851 -0.82800007
0.31529957 -0.25986892 -0.822276
-0.19626442 -0.22722144 -0.78125006
-0.07711637 -0.23447318 -0.79122233
-0.01760345 -0.19557166 -0.78080004
0.1008105 -0.18450651 -0.7803334
0.14121689 -0.20428838 -0.81700003
0.29722381 -0.19934008 -0.78875005
0.32104164 -0.23477918 -0.8222205
-0.2609759 -0.14742714 -0.81300002
0.069936298 -0.15715128 -0.78685725
0.40984148 -0.029877661 -0.82885122
0.42378432 -0.036471624 -0.82826328
-0.30442142 0.018005697 -0.80743468
-0.26156268 0.028124107 -0.78924507
-0.20298427 0.031624962 -0.79119897
-0.16271785 0.029203555 -0.81464154
-0.11856027 0.010976235 -0.78100008
-0.019547725 0.014252615 -0.7984578
0.10050214 0.011701365 -0.79403865
0.26342642 0.018314278 -0.80016387
-0.30280405 0.092977434 -0.83200002
-0.27832001 0.082936756 -0.79350007
-0.18525559 0.078087628 -0.79064161
-0.17723538 0.093393594 -0.79609466
-0.29039013 0.16752689 -0.78220004
-0.18045387 0.12830359 -0.78245461
-0.17618573 0.14530548 -0.78832877
-0.19829755 0.23589596 -0.83200002
-0.17819408 0.18875796 -0.79305011
-0.297019 -0.26311576 -0.76850003
-0.19982277 -0.28109896 -0.76984864
-0.1514761 -0.26397172 -0.77100003
-0.19152792 -0.22604874 -0.7682001
-0.16939797 -0.2256927 -0.74162501
-0.020763241 -0.19436195 -0.77400005
0.014435284 -0.21322122 -0.75540006
0.10023148 -0.18117251 -0.778
0.28801882 -0.18782847 -0.73211771
-0.2221164 -0.15142146 -0.74295473
-0.13782454 -0.14911368 -0.75197846
0.069415145 -0.15297025 -0.77900004
0.28778511 -0.17673685 -0.7295714
-0.2660329 -0.0078130029 -0.74106324
-0.21066457 -0.0067626634 -0.74005812
-0.14743845 -0.0096104238 -0.73435843
-0.082732901 -0.0068962513 -0.74182051
-0.029269464 -0.0069797183 -0.74336773
0.0046285288 -0.0069046551 -0.7313478
0.092790976 -0.0078378208 -0.73586494
0.23302823 -0.0072795716 -0.73438096
0.25896832 -0.00584877 -0.73570424
0.3657369 -0.0098305009 -0.76900005
-0.3004964 0.0059236768 -0.77750003
-0.25290337 0.042582907 -0.77248847
-0.21947353 0.034721509 -0.77147257
-0.13002235 0.025325703 -0.77201319
-0.087863266 0.030452225 -0.74389231
-0.041669682 0.029699653 -0.75371951
0.0027110847 0.043464541 -0.72175008
0.099987909 0.0023453031 -0.76575011
0.23757164 0.0029656691 -0.75572735
0.26632524 0.0058912658 -0.76604247
-0.25426751 0.091406226 -0.76107043
-0.21202962 0.09209235 -0.76028925
-0.12986463 0.081346117 -0.76285303
-0.093948998 0.080336675 -0.72949564
-0.04080417 0.086722471 -0.7355637
-0.2550303 0.14980219 -0.74071604
-0.20852417 0.15034819 -0.74076152
-0.17485498 0.15846962 -0.76670182
-0.11497563 0.13946147 -0.73142856
-0.031540088 0.1343407 -0.72642088
-0.25161898 0.19080865 -0.72653341
-0.20684712 0.19352892 -0.73200518
-0.1774902 0.19503263 -0.75995594
-0.11546252 -0.24018157 -0.66800004
0.26286715 -0.24235366 -0.66140002
-0.24846485 -0.20137486 -0.69753343
-0.23240551 -0.20940173 -0.66250002
-0.11619685 -0.23803048 -0.66400003
-0.056316264 -0.19668436 -0.66400003
0.0424079 -0.19506934 -0.68260002
0.29420948 -0.1875986 -0.70473397
0.30253693 -0.18274982 -0.68694454
-0.22324315 -0.12912771 -0.67733335
-0.07316573 -0.16455381 -0.68150008
-0.054403879 -0.1507908 -0.70970005
0.09845899 -0.13339978 -0.68200004
0.29411608 -0.16927741 -0.69663036
0.30392453 -0.16402873 -0.67932868
0.11260483 -0.11915702 -0.66980004
-0.25434694 -0.024457235 -0.6887356
-0.21154577 -0.022667551 -0.6936056
-0.15288198 -0.024446148 -0.69031012
-0.089878887 -0.025295703 -0.6874854
-0.030367639 -0.025963895 -0.68781412
0.032498326 -0.019361902 -0.69049299
0.090561599 -0.021086214 -0.68376887
0.12283156 -0.02964917 -0.66110003
0.21850139 -0.024727367 -0.68049771
0.25530356 -0.022069596 -0.69189382
0.31826517 -0.028969856 -0.66794282
-0.0020694225 0.057490528 -0.7104286
0.032163162 0.030945165 -0.68781859
0.078165337 0.028288342 -0.6885463
0.2014394 0.011010619 -0.66299999
0.2663224 0.0065406426 -0.67845458
-0.079948351 0.10277733 -0.71411991
-0.051507168 0.10754618 -0.71525019
0.033274852 0.088442296 -0.67134202
0.073394448 0.084185004 -0.67824042
0.1545433 0.08433678 -0.70237833
0.1915438 0.08275985 -0.68524402
-0.088160224 0.12874438 -0.70730257
-0.047125075 0.13281423 -0.71162117
0.028803889 0.1262385 -0.68018323
0.063632786 0.12414035 -0.67646164
-0.24712366 0.1967914 -0.71858329
-0.22621319 0.19934314 -0.71709424
-0.20599517 -0.24082461 -0.625
0.26354703 -0.24464436 -0.64885068
-0.2003815 -0.22953254 -0.62075764
-0.13576221 -0.22660367 -0.61364704
0.27415887 -0.20995221 -0.62185609
-0.16557881 -0.154107 -0.63366669
-0.063671209 -0.16447338 -0.62835723
-0.033879355 -0.16150717 -0.63340014
0.018435696 -0.14162023 -0.60039997
0.090294331 -0.12099924 -0.62300003
0.29054964 -0.16177198 -0.6110028
0.30511317 -0.14042984 -0.62427968
-0.20809512 -0.094564043 -0.61400002
-0.027815923 -0.11548095 -0.60975003
0.090221867 -0.11889773 -0.62250006
-0.24203616 -0.041810047 -0.63692856
-0.20837563 -0.046176031 -0.62668228
-0.14763695 -0.046671771 -0.62719083
-0.092825778 -0.04602002 -0.62946314
-0.033120904 -0.046374127 -0.62949181
0.030499423 -0.047146548 -0.62649214
0.090703271 -0.04479247 -0.6289317
0.14883813 -0.028115168 -0.63820249
0.20562644 -0.038810637 -0.63236189
0.27089804 -0.030449625 -0.63095176
0.31147709 -0.041161098 -0.63290155
0.11471576 0.034883887 -0.64869845
0.14838213 0.030469155 -0.62849385
0.18865816 0.030996839 -0.63595718
0.27168202 0.02229042 -0.62371761
0.0519353 0.11920889 -0.6566667
0.11102069 0.06733419 -0.64151925
0.14618155 0.062083494 -0.61997235
0.19369228 0.065290965 -0.63128811
0.045987252 0.12104748 -0.65900004
0.22623989 0.16191119 -0.61200011
-0.19795807 -0.21458575 -0.59069234
0.28368741 -0.20501356 -0.58491534
-0.19825205 -0.1441839 -0.5837273
-0.17330024 -0.131063 -0.57789469
-0.032897275 -0.15063283 -0.59752381
0.019328192 -0.15701029 -0.57405263
0.11279836 -0.1230889 -0.56461543
0.22015291 -0.12306448 -0.54639024
0.29202157 -0.16385137 -0.58872414
0.30280977 -0.13763009 -0.59300011
-0.19672196 -0.067362197 -0.56625199
-0.14888091 -0.069178186 -0.56396765
-0.089704961 -0.069907203 -0.56300747
-0.027994325 -0.069173545 -0.56303746
0.029443881 -0.0688629 -0.56410044
0.090120293 -0.068642572 -0.5622834
0.15048566 -0.068354912 -0.56134558
0.21577916 -0.080845818 -0.5556187
0.26482785 -0.086463071 -0.55890805
-0.19949679 -0.058423836 -0.59076154
-0.15074785 -0.05805447 -0.59427255
-0.084801137 -0.057791777 -0.59457314
-0.029317599 -0.058428504 -0.59500045
0.031626847 -0.058390565 -0.59393948
0.093400948 -0.05781129 -0.59316421
0.14813423 -0.057463378 -0.59101641
0.21021232 -0.05751019 -0.59151977
0.26991853 -0.056572985 -0.59215254
0.30176052 -0.05584538 -0.59100014
-0.0022622091 0.03862197 -0.5882858
0.00061463058 0.028330564 -0.57249999
0.080024362 0.043428652 -0.56900001
0.036908433 0.10780559 -0.55449998
0.1317113 0.080093578 -0.58700001
0.2692973 0.090644583 -0.574
-0.037297253 0.12148467 -0.56333333
0.22123049 0.1645935 -0.574
-0.16456334 -0.12574369 -0.52779996
-0.078813896 -0.12356395 -0.53224999
-0.010796337 -0.17193487 -0.52743983
0.013409608 -0.14864343 -0.52396524
0.079395339 -0.12834924 -0.51775008
0.15643653 -0.12800446 -0.52095956
0.19409433 -0.12496798 -0.53560591
-0.18896447 -0.079839759 -0.53019387
-0.14993793 -0.081720278 -0.52682918
-0.09059114 -0.081898615 -0.52584928
-0.031661607 -0.082187966 -0.5248673
0.031850703 -0.082376927 -0.52463269
0.089017794 -0.080809742 -0.52560103
0.15841264 -0.092572652 -0.52202672
0.2025525 -0.093201034 -0.53085899
0.07788334 0.0091703907 -0.51864004
0.17893319 0.041599348 -0.51600003
0.13482903 0.073544182 -0.53900003
