# .PCD v0.7 - Point Cloud Data file format
VERSION 0.7
FIELDS x y z
SIZE 4 4 4
TYPE F F F
COUNT 1 1 1
WIDTH 1344
HEIGHT 1
VIEWPOINT 0 0 0 1 0 0 0
POINTS 1344
DATA ascii
0.23476526 -0.044750694 -0.62300003
0.23610295 -0.044750694 -0.62300003
0.23782176 -0.044822525 -0.62400001
0.23954488 -0.044894353 -0.625
0.2412723 -0.044966187 -0.62600005
0.24222887 -0.044894353 -0.625
0.24435028 -0.045038018 -0.62700003
0.24608842 -0.045109849 -0.62800002
0.24704285 -0.045038018 -0.62700003
0.24878527 -0.045109849 -0.62800002
0.250532 -0.045181677 -0.62900001
0.25188258 -0.045181677 -0.62900001
0.25323316 -0.045181677 -0.62900001
0.25458375 -0.045181677 -0.62900001
0.25512055 -0.045038018 -0.62700003
0.25646684 -0.045038018 -0.62700003
0.2578131 -0.045038018 -0.62700003
0.25874606 -0.044966187 -0.62600005
0.25925922 -0.044822525 -0.62400001
0.26059908 -0.044822525 -0.62400001
0.26235867 -0.044894353 -0.625
0.26412261 -0.044966187 -0.62600005
0.26546675 -0.044966187 -0.62600005
0.26723707 -0.045038018 -0.62700003
0.26901174 -0.045109849 -0.62800002
0.27079067 -0.045181677 -0.62900001
0.27214125 -0.045181677 -0.62900001
0.27392665 -0.045253512 -0.63000005
0.27484238 -0.045181677 -0.62900001
0.27663207 -0.045253512 -0.63000005
0.2779848 -0.045253512 -0.63000005
0.27933753 -0.045253512 -0.63000005
0.2811358 -0.045325343 -0.63100004
0.28204298 -0.045253512 -0.63000005
0.28339571 -0.045253512 -0.63000005
0.28474844 -0.045253512 -0.63000005
0.285647 -0.045181677 -0.62900001
0.28654131 -0.045109849 -0.62800002
0.28743133 -0.045038018 -0.62700003
0.28785643 -0.044894353 -0.625
0.28873572 -0.044822525 -0.62400001
0.29007557 -0.044822525 -0.62400001
0.29094842 -0.044750694 -0.62300003
0.2922861 -0.044750694 -0.62300003
0.29362381 -0.044750694 -0.62300003
0.2958236 -0.044678863 -0.62200004
0.29715914 -0.044678863 -0.62200004
0.29849467 -0.044678863 -0.62200004
0.29983023 -0.044678863 -0.62200004
0.30116576 -0.044678863 -0.62200004
0.30201498 -0.044607032 -0.62100005
0.30383685 -0.044678863 -0.62200004
0.30566305 -0.044750694 -0.62300003
0.30749351 -0.044822525 -0.62400001
0.30883333 -0.044822525 -0.62400001
0.31017318 -0.044822525 -0.62400001
0.31185013 -0.044678863 -0.62200004
0.31268218 -0.044607032 -0.62100005
0.31350991 -0.044535197 -0.62
0.31484115 -0.044535197 -0.62
0.31617239 -0.044535197 -0.62
0.31750366 -0.044535197 -0.62
0.3193492 -0.044607032 -0.62100005
-0.23934627 -0.046458274 -0.62800002
-0.23761888 -0.046384297 -0.62700003
-0.23589575 -0.04631032 -0.62600005
-0.23455162 -0.04631032 -0.62600005
-0.23320748 -0.04631032 -0.62600005
-0.23186335 -0.04631032 -0.62600005
-0.23015097 -0.046236336 -0.625
-0.22844288 -0.046162359 -0.62400001
-0.22710304 -0.046162359 -0.62400001
-0.2254014 -0.046088383 -0.62300003
-0.22005063 -0.046088383 -0.62300003
-0.21871294 -0.046088383 -0.62300003
-0.21772416 -0.046162359 -0.62400001
-0.21534401 -0.045940429 -0.62100005
-0.21366598 -0.045866448 -0.62
-0.21233472 -0.045866448 -0.62
-0.21134382 -0.045940429 -0.62100005
-0.21170132 -0.04631032 -0.62600005
-0.21035719 -0.04631032 -0.62600005
-0.20934695 -0.046384297 -0.62700003
-0.20833239 -0.046458274 -0.62800002
-0.20698397 -0.046458274 -0.62800002
-0.20596297 -0.046532251 -0.62900001
-0.20461239 -0.046532251 -0.62900001
-0.19817409 -0.046606231 -0.63000005
-0.19619651 -0.046458274 -0.62800002
-0.19453783 -0.046384297 -0.62700003
-0.19288342 -0.04631032 -0.62600005
-0.19123331 -0.046236336 -0.625
-0.18958749 -0.046162359 -0.62400001
-0.18824765 -0.046162359 -0.62400001
-0.18630877 -0.046014406 -0.62200004
-0.18467583 -0.045940429 -0.62100005
-0.18363766 -0.046014406 -0.62200004
-0.18078621 -0.04631032 -0.62600005
-0.17923595 -0.046606231 -0.63000005
-0.17788322 -0.046606231 -0.63000005
-0.17709091 -0.046754189 -0.63200003
-0.17545582 -0.046680208 -0.63100004
-0.17382506 -0.046606231 -0.63000005
-0.17219855 -0.046532251 -0.62900001
-0.17057636 -0.046458274 -0.62800002
-0.16922791 -0.046458274 -0.62800002
-0.16814682 -0.046532251 -0.62900001
-0.16653107 -0.046458274 -0.62800002
-0.16439354 -0.046236336 -0.625
-0.1625298 -0.046088383 -0.62300003
-0.16145083 -0.046162359 -0.62400001
-0.14022918 -0.046680208 -0.63100004
-0.13843413 -0.046532251 -0.62900001
-0.13664769 -0.046384297 -0.62700003
-0.1348698 -0.046236336 -0.625
-0.13331418 -0.046162359 -0.62400001
-0.13197432 -0.046162359 -0.62400001
-0.13063449 -0.046162359 -0.62400001
-0.12929466 -0.046162359 -0.62400001
-0.12815987 -0.046236336 -0.625
-0.12702079 -0.04631032 -0.62600005
-0.12607817 -0.046458274 -0.62800002
-0.12512699 -0.046606231 -0.63000005
-0.12377426 -0.046606231 -0.63000005
-0.12242153 -0.046606231 -0.63000005
-0.12106881 -0.046606231 -0.63000005
-0.11971609 -0.046606231 -0.63000005
-0.11817548 -0.046532251 -0.62900001
-0.1168249 -0.046532251 -0.62900001
-0.11529074 -0.046458274 -0.62800002
-0.11394231 -0.046458274 -0.62800002
-0.11259388 -0.046458274 -0.62800002
-0.11124545 -0.046458274 -0.62800002
-0.10989702 -0.046458274 -0.62800002
-0.10872144 -0.046532251 -0.62900001
-0.10737086 -0.046532251 -0.62900001
-0.10568319 -0.046384297 -0.62700003
-0.10400408 -0.046236336 -0.625
-0.10249783 -0.046162359 -0.62400001
-0.10099588 -0.046088383 -0.62300003
-0.099658184 -0.046088383 -0.62300003
-0.098320492 -0.046088383 -0.62300003
-0.096982807 -0.046088383 -0.62300003
-0.095798634 -0.046162359 -0.62400001
-0.089956149 -0.046606231 -0.63000005
-0.088603429 -0.046606231 -0.63000005
-0.087112203 -0.046532251 -0.62900001
-0.085625291 -0.046458274 -0.62800002
-0.084142663 -0.046384297 -0.62700003
-0.082664326 -0.04631032 -0.62600005
-0.081320189 -0.04631032 -0.62600005
-0.079848289 -0.046236336 -0.625
-0.078380696 -0.046162359 -0.62400001
-0.071356192 -0.046828166 -0.63300002
-0.069997028 -0.046828166 -0.63300002
-0.068420999 -0.046680208 -0.63100004
-0.067066133 -0.046680208 -0.63100004
-0.065607123 -0.046606231 -0.63000005
-0.064254396 -0.046606231 -0.63000005
-0.062901668 -0.046606231 -0.63000005
-0.061451249 -0.046532251 -0.62900001
-0.060100671 -0.046532251 -0.62900001
-0.057490773 -0.046606231 -0.63000005
-0.056138054 -0.046606231 -0.63000005
-0.054872286 -0.046680208 -0.63100004
-0.053602226 -0.046754189 -0.63200003
-0.052245207 -0.046754189 -0.63200003
-0.050888192 -0.046754189 -0.63200003
-0.049531173 -0.046754189 -0.63200003
-0.048250377 -0.046828166 -0.63300002
-0.046891212 -0.046828166 -0.63300002
-0.045532048 -0.046828166 -0.63300002
-0.044172883 -0.046828166 -0.63300002
-0.042881351 -0.046902142 -0.634
-0.041585527 -0.046976123 -0.63500005
-0.040158726 -0.046902142 -0.634
-0.038797412 -0.046902142 -0.634
-0.037436098 -0.046902142 -0.634
-0.036017887 -0.046828166 -0.63300002
-0.034603968 -0.046754189 -0.63200003
-0.033246953 -0.046754189 -0.63200003
-0.031839475 -0.046680208 -0.63100004
-0.030484604 -0.046680208 -0.63100004
-0.029129732 -0.046680208 -0.63100004
-0.027774861 -0.046680208 -0.63100004
-0.026461858 -0.046754189 -0.63200003
-0.025104841 -0.046754189 -0.63200003
-0.023710247 -0.046680208 -0.63100004
-0.022355376 -0.046680208 -0.63100004
-0.020967223 -0.046606231 -0.63000005
-0.019614501 -0.046606231 -0.63000005
-0.018290764 -0.046680208 -0.63100004
-0.016909052 -0.046606231 -0.63000005
-0.015556328 -0.046606231 -0.63000005
-0.014203604 -0.046606231 -0.63000005
-0.01285088 -0.046606231 -0.63000005
-0.011498156 -0.046606231 -0.63000005
-0.010145431 -0.046606231 -0.63000005
-0.008778749 -0.046532251 -0.62900001
-0.0074399826 -0.046606231 -0.63000005
-0.0060872585 -0.046606231 -0.63000005
-0.0047420496 -0.046680208 -0.63100004
-0.0033871783 -0.046680208 -0.63100004
0.0046894434 -0.046162359 -0.62400001
0.0060389466 -0.046236336 -0.625
0.0073927445 -0.04631032 -0.62600005
0.008778749 -0.046532251 -0.62900001
0.010145431 -0.046606231 -0.63000005
0.011498156 -0.046606231 -0.63000005
0.01285088 -0.046606231 -0.63000005
0.014203604 -0.046606231 -0.63000005
0.015531634 -0.046532251 -0.62900001
0.016882211 -0.046532251 -0.62900001
0.018174814 -0.046384297 -0.62700003
0.019458828 -0.046236336 -0.625
0.020767534 -0.046162359 -0.62400001
0.022107376 -0.046162359 -0.62400001
0.023447216 -0.046162359 -0.62400001
0.02482678 -0.046236336 -0.625
0.02621064 -0.04631032 -0.62600005
0.027554777 -0.04631032 -0.62600005
0.028945073 -0.046384297 -0.62700003
0.030339669 -0.046458274 -0.62800002
0.031738557 -0.046532251 -0.62900001
0.033089135 -0.046532251 -0.62900001
0.034494463 -0.046606231 -0.63000005
0.035847191 -0.046606231 -0.63000005
0.037199914 -0.046606231 -0.63000005
0.038552638 -0.046606231 -0.63000005
0.039842017 -0.046532251 -0.62900001
0.041192591 -0.046532251 -0.62900001
0.042543169 -0.046532251 -0.62900001
0.043823965 -0.046458274 -0.62800002
0.045100465 -0.046384297 -0.62700003
0.046520822 -0.046458274 -0.62800002
0.047869254 -0.046458274 -0.62800002
0.049296055 -0.046532251 -0.62900001
0.050646633 -0.046532251 -0.62900001
0.051997207 -0.046532251 -0.62900001
0.053432602 -0.046606231 -0.63000005
0.054785326 -0.046606231 -0.63000005
0.056138054 -0.046606231 -0.63000005
0.057399515 -0.046532251 -0.62900001
0.058656693 -0.046458274 -0.62800002
0.059814025 -0.04631032 -0.62600005
0.061060458 -0.046236336 -0.625
0.062302601 -0.046162359 -0.62400001
0.063642442 -0.046162359 -0.62400001
0.064982288 -0.046162359 -0.62400001
0.066428415 -0.046236336 -0.625
0.067987263 -0.046384297 -0.62700003
0.069444127 -0.046458274 -0.62800002
0.070792556 -0.046458274 -0.62800002
0.072140992 -0.046458274 -0.62800002
0.073489413 -0.046458274 -0.62800002
0.074599512 -0.04631032 -0.62600005
0.075943649 -0.04631032 -0.62600005
0.077164315 -0.046236336 -0.625
0.078380696 -0.046162359 -0.62400001
0.079720534 -0.046162359 -0.62400001
0.08106038 -0.046162359 -0.62400001
0.082400218 -0.046162359 -0.62400001
0.083874255 -0.046236336 -0.625
0.085216247 -0.046236336 -0.625
0.08655823 -0.046236336 -0.625
0.087759577 -0.046162359 -0.62400001
0.089099422 -0.046162359 -0.62400001
0.09043926 -0.046162359 -0.62400001
0.091779105 -0.046162359 -0.62400001
0.093118951 -0.046162359 -0.62400001
0.094610162 -0.046236336 -0.625
0.095952153 -0.046236336 -0.625
0.097449817 -0.04631032 -0.62600005
0.098793946 -0.04631032 -0.62600005
0.10013808 -0.04631032 -0.62600005
0.10148222 -0.04631032 -0.62600005
0.10282636 -0.04631032 -0.62600005
0.1043369 -0.046384297 -0.62700003
0.10585173 -0.046458274 -0.62800002
0.10754157 -0.046606231 -0.63000005
0.10906714 -0.046680208 -0.63100004
0.11024702 -0.046606231 -0.63000005
0.11159974 -0.046606231 -0.63000005
0.11313175 -0.046680208 -0.63100004
0.11394231 -0.046458274 -0.62800002
0.11510716 -0.046384297 -0.62700003
0.11608198 -0.046236336 -0.625
0.11723609 -0.046162359 -0.62400001
0.11895598 -0.04631032 -0.62600005
0.12087663 -0.046532251 -0.62900001
0.1222272 -0.046532251 -0.62900001
0.12357778 -0.046532251 -0.62900001
0.12492836 -0.046532251 -0.62900001
0.12627894 -0.046532251 -0.62900001
0.12762952 -0.046532251 -0.62900001
0.12856999 -0.046384297 -0.62700003
0.12970906 -0.04631032 -0.62600005
0.13084383 -0.046236336 -0.625
0.13197432 -0.046162359 -0.62400001
0.13310052 -0.046088383 -0.62300003
0.13443823 -0.046088383 -0.62300003
0.13577592 -0.046088383 -0.62300003
0.13667345 -0.045940429 -0.62100005
0.13800685 -0.045940429 -0.62100005
0.13934025 -0.045940429 -0.62100005
0.14044711 -0.045866448 -0.62
0.14200704 -0.045940429 -0.62100005
0.14334044 -0.045940429 -0.62100005
0.1449068 -0.046014406 -0.62200004
0.14624237 -0.046014406 -0.62200004
0.14781517 -0.046088383 -0.62300003
0.14915286 -0.046088383 -0.62300003
0.15049055 -0.046088383 -0.62300003
0.15182824 -0.046088383 -0.62300003
0.15316594 -0.046088383 -0.62300003
0.15450363 -0.046088383 -0.62300003
0.15584134 -0.046088383 -0.62300003
0.15717903 -0.046088383 -0.62300003
0.15877114 -0.046162359 -0.62400001
0.16706143 -0.046606231 -0.63000005
0.16976687 -0.046606231 -0.63000005
0.17084797 -0.046532251 -0.62900001
0.17192478 -0.046458274 -0.62800002
0.17327322 -0.046458274 -0.62800002
0.17724444 -0.046088383 -0.62300003
0.17858212 -0.046088383 -0.62300003
0.17991981 -0.046088383 -0.62300003
0.18125752 -0.046088383 -0.62300003
0.18230212 -0.046014406 -0.62200004
0.1839329 -0.046088383 -0.62300003
0.18556798 -0.046162359 -0.62400001
0.18720734 -0.046236336 -0.625
0.1891527 -0.046384297 -0.62700003
0.19049898 -0.046384297 -0.62700003
0.19184527 -0.046384297 -0.62700003
0.19319154 -0.046384297 -0.62700003
0.19422756 -0.04631032 -0.62600005
0.19525927 -0.046236336 -0.625
0.19628671 -0.046162359 -0.62400001
0.19730984 -0.046088383 -0.62300003
0.19800983 -0.045940429 -0.62100005
0.19934322 -0.045940429 -0.62100005
0.20201002 -0.045940429 -0.62100005
0.20334342 -0.045940429 -0.62100005
0.21102494 -0.046162359 -0.62400001
0.21202447 -0.046088383 -0.62300003
0.21336216 -0.046088383 -0.62300003
0.21469986 -0.046088383 -0.62300003
0.21603754 -0.046088383 -0.62300003
0.21737525 -0.046088383 -0.62300003
0.21871294 -0.046088383 -0.62300003
0.22040385 -0.046162359 -0.62400001
0.22174367 -0.046162359 -0.62400001
0.22308351 -0.046162359 -0.62400001
0.22890024 -0.045718495 -0.61800003
0.23097225 -0.045866448 -0.62
0.23230352 -0.045866448 -0.62
0.23363476 -0.045866448 -0.62
0.23496602 -0.045866448 -0.62
0.23667841 -0.045940429 -0.62100005
0.23801182 -0.045940429 -0.62100005
0.23973063 -0.046014406 -0.62200004
0.24067862 -0.045940429 -0.62100005
0.24201201 -0.045940429 -0.62100005
0.24334539 -0.045940429 -0.62100005
0.24467881 -0.045940429 -0.62100005
0.2460122 -0.045940429 -0.62100005
0.2481422 -0.046088383 -0.62300003
0.24947989 -0.046088383 -0.62300003
0.2508176 -0.046088383 -0.62300003
0.25256002 -0.046162359 -0.62400001
0.25389984 -0.046162359 -0.62400001
0.2552397 -0.046162359 -0.62400001
0.25616837 -0.046088383 -0.62300003
0.25750607 -0.046088383 -0.62300003
0.25842828 -0.046014406 -0.62200004
0.25976384 -0.046014406 -0.62200004
0.26151913 -0.046088383 -0.62300003
0.26285684 -0.046088383 -0.62300003
0.26419452 -0.046088383 -0.62300003
0.26553223 -0.046088383 -0.62300003
0.2668699 -0.046088383 -0.62300003
0.2686381 -0.046162359 -0.62400001
0.26954532 -0.046088383 -0.62300003
0.27044818 -0.046014406 -0.62200004
0.27178374 -0.046014406 -0.62200004
0.2731193 -0.046014406 -0.62200004
0.27401358 -0.045940429 -0.62100005
0.27623376 -0.046088383 -0.62300003
0.27801698 -0.046162359 -0.62400001
0.27980453 -0.046236336 -0.625
0.28159636 -0.04631032 -0.62600005
0.28294051 -0.04631032 -0.62600005
0.28383049 -0.046236336 -0.625
0.28517249 -0.046236336 -0.625
0.28605604 -0.046162359 -0.62400001
0.2869353 -0.046088383 -0.62300003
0.28827301 -0.046088383 -0.62300003
0.28914586 -0.046014406 -0.62200004
0.29048139 -0.046014406 -0.62200004
0.29181695 -0.046014406 -0.62200004
0.29268119 -0.045940429 -0.62100005
0.29401457 -0.045940429 -0.62100005
0.29534799 -0.045940429 -0.62100005
0.29668137 -0.045940429 -0.62100005
0.29753485 -0.045866448 -0.62
0.29886612 -0.045866448 -0.62
0.30019736 -0.045866448 -0.62
0.30152863 -0.045866448 -0.62
0.30285987 -0.045866448 -0.62
0.30468178 -0.045940429 -0.62100005
0.30601519 -0.045940429 -0.62100005
0.30734858 -0.045940429 -0.62100005
0.31034601 -0.045792472 -0.61900002
0.31167513 -0.045792472 -0.61900002
0.3124986 -0.045718495 -0.61800003
0.31382555 -0.045718495 -0.61800003
0.3151525 -0.045718495 -0.61800003
0.31647947 -0.045718495 -0.61800003
0.31832066 -0.045792472 -0.61900002
-0.23744065 -0.047426078 -0.62300003
-0.23610295 -0.047426078 -0.62300003
-0.23476526 -0.047426078 -0.62300003
-0.23380224 -0.047502205 -0.62400001
-0.23208986 -0.047426078 -0.62300003
-0.23112257 -0.047502205 -0.62400001
-0.23015097 -0.047578327 -0.625
-0.22844288 -0.047502205 -0.62400001
-0.22673911 -0.047426078 -0.62300003
-0.2254014 -0.047426078 -0.62300003
-0.22334442 -0.04727383 -0.62100005
-0.22201101 -0.04727383 -0.62100005
-0.22032224 -0.0471977 -0.62
-0.218991 -0.0471977 -0.62
-0.21765974 -0.0471977 -0.62
-0.21632849 -0.0471977 -0.62
-0.21465047 -0.047121577 -0.61900002
-0.21332137 -0.047121577 -0.61900002
-0.21199225 -0.047121577 -0.61900002
-0.21100348 -0.0471977 -0.62
-0.20967221 -0.0471977 -0.62
-0.20867702 -0.04727383 -0.62100005
-0.20734362 -0.04727383 -0.62100005
-0.20634195 -0.047349956 -0.62200004
-0.20500642 -0.047349956 -0.62200004
-0.19463444 -0.047426078 -0.62300003
-0.19298649 -0.047349956 -0.62200004
-0.19165094 -0.047349956 -0.62200004
-0.19000943 -0.04727383 -0.62100005
-0.18867601 -0.04727383 -0.62100005
-0.18734263 -0.04727383 -0.62100005
-0.18570969 -0.0471977 -0.62
-0.18408105 -0.047121577 -0.61900002
-0.18304719 -0.0471977 -0.62
-0.18171592 -0.0471977 -0.62
-0.16894665 -0.047349956 -0.62200004
-0.16734163 -0.04727383 -0.62100005
-0.16600823 -0.04727383 -0.62100005
-0.16467485 -0.04727383 -0.62100005
-0.16334143 -0.04727383 -0.62100005
-0.16174714 -0.0471977 -0.62
-0.16041589 -0.0471977 -0.62
-0.15882806 -0.047121577 -0.61900002
-0.1572445 -0.047045451 -0.61800003
-0.15566526 -0.046969328 -0.61700004
-0.15434046 -0.046969328 -0.61700004
-0.15301564 -0.046969328 -0.61700004
-0.15218252 -0.047121577 -0.61900002
-0.13822909 -0.047349956 -0.62200004
-0.13689354 -0.047349956 -0.62200004
-0.13555798 -0.047349956 -0.62200004
-0.13400665 -0.04727383 -0.62100005
-0.13267325 -0.04727383 -0.62100005
-0.13133985 -0.04727383 -0.62100005
-0.13000645 -0.04727383 -0.62100005
-0.12888026 -0.047349956 -0.62200004
-0.1275447 -0.047349956 -0.62200004
-0.12641206 -0.047426078 -0.62300003
-0.12527514 -0.047502205 -0.62400001
-0.12433252 -0.047654457 -0.62600005
-0.12318485 -0.04773058 -0.62700003
-0.12183857 -0.04773058 -0.62700003
-0.12068445 -0.047806706 -0.62800002
-0.11933603 -0.047806706 -0.62800002
-0.11779973 -0.04773058 -0.62700003
-0.11626771 -0.047654457 -0.62600005
-0.11492357 -0.047654457 -0.62600005
-0.11339799 -0.047578327 -0.625
-0.1122353 -0.047654457 -0.62600005
-0.11071402 -0.047578327 -0.625
-0.10954703 -0.047654457 -0.62600005
-0.1082029 -0.047654457 -0.62600005
-0.10685877 -0.047654457 -0.62600005
-0.10517751 -0.047502205 -0.62400001
-0.10367127 -0.047426078 -0.62300003
-0.10233358 -0.047426078 -0.62300003
-0.10099588 -0.047426078 -0.62300003
-0.09949822 -0.047349956 -0.62200004
-0.098162673 -0.047349956 -0.62200004
-0.09667147 -0.04727383 -0.62100005
-0.095491588 -0.047349956 -0.62200004
-0.094307415 -0.047426078 -0.62300003
-0.093268171 -0.047578327 -0.625
-0.09072914 -0.047654457 -0.62600005
-0.089527786 -0.04773058 -0.62700003
-0.088181503 -0.04773058 -0.62700003
-0.08683522 -0.04773058 -0.62700003
-0.0853526 -0.047654457 -0.62600005
-0.083874255 -0.047578327 -0.625
-0.082400218 -0.047502205 -0.62400001
-0.08106038 -0.047502205 -0.62400001
-0.079592779 -0.047426078 -0.62300003
-0.078003868 -0.04727383 -0.62100005
-0.06966529 -0.047958959 -0.63000005
-0.068204127 -0.047882829 -0.62900001
-0.066640988 -0.04773058 -0.62700003
-0.065294705 -0.04773058 -0.62700003
-0.063948423 -0.04773058 -0.62700003
-0.062602133 -0.04773058 -0.62700003
-0.061255857 -0.04773058 -0.62700003
-0.059909575 -0.04773058 -0.62700003
-0.058563288 -0.04773058 -0.62700003
-0.057217006 -0.04773058 -0.62700003
-0.055870727 -0.04773058 -0.62700003
-0.054437485 -0.047654457 -0.62600005
-0.053093348 -0.047654457 -0.62600005
-0.051831875 -0.04773058 -0.62700003
-0.050485596 -0.04773058 -0.62700003
-0.049139313 -0.04773058 -0.62700003
-0.047793031 -0.04773058 -0.62700003
-0.046594899 -0.047882829 -0.62900001
-0.04531626 -0.047958959 -0.63000005
-0.044033319 -0.048035081 -0.63100004
-0.042746078 -0.048111208 -0.63200003
-0.04145455 -0.04818733 -0.63300002
-0.040095385 -0.04818733 -0.63300002
-0.03873622 -0.04818733 -0.63300002
-0.037318006 -0.048111208 -0.63200003
-0.035847191 -0.047958959 -0.63000005
-0.034384955 -0.047806706 -0.62800002
-0.032931317 -0.047654457 -0.62600005
-0.03158718 -0.047654457 -0.62600005
-0.030194733 -0.047578327 -0.625
-0.028852744 -0.047578327 -0.625
-0.027510757 -0.047578327 -0.625
-0.02621064 -0.047654457 -0.62600005
-0.024906227 -0.04773058 -0.62700003
-0.023559943 -0.04773058 -0.62700003
-0.022178235 -0.047654457 -0.62600005
-0.020867379 -0.04773058 -0.62700003
-0.019552231 -0.047806706 -0.62800002
-0.018203801 -0.047806706 -0.62800002
-0.016855372 -0.047806706 -0.62800002
-0.01548225 -0.04773058 -0.62700003
-0.014135967 -0.04773058 -0.62700003
-0.012789684 -0.04773058 -0.62700003
-0.011443402 -0.04773058 -0.62700003
-0.010081016 -0.047654457 -0.62600005
-0.0087368796 -0.047654457 -0.62600005
-0.0073927445 -0.047654457 -0.62600005
-0.0060582715 -0.04773058 -0.62700003
-0.0047119888 -0.04773058 -0.62700003
0.0060099601 -0.047349956 -0.62200004
0.0073455065 -0.047349956 -0.62200004
0.0086950101 -0.047426078 -0.62300003
0.010048808 -0.047502205 -0.62400001
0.011425151 -0.047654457 -0.62600005
0.012769287 -0.047654457 -0.62600005
0.014113422 -0.047654457 -0.62600005
0.015432863 -0.047578327 -0.625
0.016721172 -0.047426078 -0.62300003
0.01802988 -0.047349956 -0.62200004
0.019334294 -0.04727383 -0.62100005
0.020667691 -0.04727383 -0.62100005
0.022001091 -0.04727383 -0.62100005
0.023372065 -0.047349956 -0.62200004
0.024707614 -0.047349956 -0.62200004
0.026085028 -0.047426078 -0.62300003
0.02746674 -0.047502205 -0.62400001
0.028852744 -0.047578327 -0.625
0.030243047 -0.047654457 -0.62600005
0.03158718 -0.047654457 -0.62600005
0.032931317 -0.047654457 -0.62600005
0.034330204 -0.04773058 -0.62700003
0.035676487 -0.04773058 -0.62700003
0.036963724 -0.047654457 -0.62600005
0.038185466 -0.047502205 -0.62400001
0.039525311 -0.047502205 -0.62400001
0.040865146 -0.047502205 -0.62400001
0.042204991 -0.047502205 -0.62400001
0.043544833 -0.047502205 -0.62400001
0.044884674 -0.047502205 -0.62400001
0.046224512 -0.047502205 -0.62400001
0.047564354 -0.047502205 -0.62400001
0.048904195 -0.047502205 -0.62400001
0.050244037 -0.047502205 -0.62400001
0.051583875 -0.047502205 -0.62400001
0.05300853 -0.047578327 -0.625
0.054437485 -0.047654457 -0.62600005
0.055692509 -0.047578327 -0.625
0.056943238 -0.047502205 -0.62400001
0.058189679 -0.047426078 -0.62300003
0.059431825 -0.047349956 -0.62200004
0.060767375 -0.047349956 -0.62200004
0.062102918 -0.047349956 -0.62200004
0.063336477 -0.04727383 -0.62100005
0.064669877 -0.04727383 -0.62100005
0.06610956 -0.047349956 -0.62200004
0.067445107 -0.047349956 -0.62200004
0.068891227 -0.047426078 -0.62300003
0.070228927 -0.047426078 -0.62300003
0.071566619 -0.047426078 -0.62300003
0.072904311 -0.047426078 -0.62300003
0.074242003 -0.047426078 -0.62300003
0.075579703 -0.047426078 -0.62300003
0.076793931 -0.047349956 -0.62200004
0.078003868 -0.04727383 -0.62100005
0.079337269 -0.04727383 -0.62100005
0.080800571 -0.047349956 -0.62200004
0.082136117 -0.047349956 -0.62200004
0.083471671 -0.047349956 -0.62200004
0.084807217 -0.047349956 -0.62200004
0.086142756 -0.047349956 -0.62200004
0.087478302 -0.047349956 -0.62200004
0.088813849 -0.047349956 -0.62200004
0.090149395 -0.047349956 -0.62200004
0.091484949 -0.047349956 -0.62200004
0.092969723 -0.047426078 -0.62300003
0.094156042 -0.047349956 -0.62200004
0.095491588 -0.047349956 -0.62200004
0.096982807 -0.047426078 -0.62300003
0.098320492 -0.047426078 -0.62300003
0.099658184 -0.047426078 -0.62300003
0.10099588 -0.047426078 -0.62300003
0.10216932 -0.047349956 -0.62200004
0.10367127 -0.047426078 -0.62300003
0.10500897 -0.047426078 -0.62300003
0.10634666 -0.047426078 -0.62300003
0.10768436 -0.047426078 -0.62300003
0.10902204 -0.047426078 -0.62300003
0.11000545 -0.04727383 -0.62100005
0.11133885 -0.04727383 -0.62100005
0.11249081 -0.0471977 -0.62
0.11382207 -0.0471977 -0.62
0.11515332 -0.0471977 -0.62
0.11648457 -0.0471977 -0.62
0.11800586 -0.04727383 -0.62100005
0.11953142 -0.047349956 -0.62200004
0.12106129 -0.047426078 -0.62300003
0.12239898 -0.047426078 -0.62300003
0.12393529 -0.047502205 -0.62400001
0.12547588 -0.047578327 -0.625
0.12661497 -0.047502205 -0.62400001
0.12774976 -0.047426078 -0.62300003
0.12908746 -0.047426078 -0.62300003
0.13021579 -0.047349956 -0.62200004
0.13155134 -0.047349956 -0.62200004
0.13267325 -0.04727383 -0.62100005
0.13400665 -0.04727383 -0.62100005
0.13512211 -0.0471977 -0.62
0.13645336 -0.0471977 -0.62
0.1377846 -0.0471977 -0.62
0.13889149 -0.047121577 -0.61900002
0.13999406 -0.047045451 -0.61800003
0.14154969 -0.047121577 -0.61900002
0.1431096 -0.0471977 -0.62
0.14444086 -0.0471977 -0.62
0.14600724 -0.04727383 -0.62100005
0.14734064 -0.04727383 -0.62100005
0.14891346 -0.047349956 -0.62200004
0.150249 -0.047349956 -0.62200004
0.15158454 -0.047349956 -0.62200004
0.15267424 -0.04727383 -0.62100005
0.15425564 -0.047349956 -0.62200004
0.15559119 -0.047349956 -0.62200004
0.15667444 -0.04727383 -0.62100005
0.15800783 -0.04727383 -0.62100005
0.16921827 -0.047426078 -0.62300003
0.17772217 -0.0471977 -0.62
0.17934223 -0.04727383 -0.62100005
0.18067564 -0.04727383 -0.62100005
0.18200903 -0.04727383 -0.62100005
0.18334244 -0.04727383 -0.62100005
0.18497321 -0.047349956 -0.62200004
0.1866083 -0.047426078 -0.62300003
0.18794598 -0.047426078 -0.62300003
0.18928367 -0.047426078 -0.62300003
0.19062136 -0.047426078 -0.62300003
0.19165094 -0.047349956 -0.62200004
0.19267623 -0.04727383 -0.62100005
0.19400962 -0.04727383 -0.62100005
0.19635969 -0.0471977 -0.62
0.19769096 -0.0471977 -0.62
0.1987012 -0.047121577 -0.61900002
0.20035344 -0.0471977 -0.62
0.20168471 -0.0471977 -0.62
0.20301595 -0.0471977 -0.62
0.20434722 -0.0471977 -0.62
0.20734362 -0.04727383 -0.62100005
0.20867702 -0.04727383 -0.62100005
0.21001041 -0.04727383 -0.62100005
0.21134382 -0.04727383 -0.62100005
0.21267721 -0.04727383 -0.62100005
0.21401063 -0.04727383 -0.62100005
0.21534401 -0.04727383 -0.62100005
0.21702634 -0.047349956 -0.62200004
0.21836187 -0.047349956 -0.62200004
0.21934423 -0.04727383 -0.62100005
0.22103298 -0.047349956 -0.62200004
0.22536385 -0.0465887 -0.61200005
0.22741868 -0.046740949 -0.61400002
0.22985466 -0.046969328 -0.61700004
0.23155415 -0.047045451 -0.61800003
0.23325793 -0.047121577 -0.61900002
0.23458704 -0.047121577 -0.61900002
0.23629726 -0.0471977 -0.62
0.23762852 -0.0471977 -0.62
0.23895977 -0.0471977 -0.62
0.24029103 -0.0471977 -0.62
0.24123257 -0.047121577 -0.61900002
0.24256167 -0.047121577 -0.61900002
0.24389078 -0.047121577 -0.61900002
0.24561603 -0.0471977 -0.62
0.24694729 -0.0471977 -0.62
0.248679 -0.04727383 -0.62100005
0.2500124 -0.04727383 -0.62100005
0.25134581 -0.04727383 -0.62100005
0.2526792 -0.04727383 -0.62100005
0.25401261 -0.04727383 -0.62100005
0.255346 -0.04727383 -0.62100005
0.25667942 -0.04727383 -0.62100005
0.2575973 -0.0471977 -0.62
0.25934622 -0.04727383 -0.62100005
0.2606796 -0.04727383 -0.62100005
0.26201302 -0.04727383 -0.62100005
0.2633464 -0.04727383 -0.62100005
0.26467979 -0.04727383 -0.62100005
0.26601321 -0.04727383 -0.62100005
0.26734659 -0.04727383 -0.62100005
0.26868001 -0.04727383 -0.62100005
0.26957858 -0.0471977 -0.62
0.27090985 -0.0471977 -0.62
0.27180198 -0.047121577 -0.61900002
0.27313107 -0.047121577 -0.61900002
0.2744602 -0.047121577 -0.61900002
0.27623484 -0.0471977 -0.62
0.27756608 -0.0471977 -0.62
0.27889735 -0.0471977 -0.62
0.2806806 -0.04727383 -0.62100005
0.28201398 -0.04727383 -0.62100005
0.28380367 -0.047349956 -0.62200004
0.28468078 -0.04727383 -0.62100005
0.28601417 -0.04727383 -0.62100005
0.28734758 -0.04727383 -0.62100005
0.28868097 -0.04727383 -0.62100005
0.28954735 -0.0471977 -0.62
0.29087859 -0.0471977 -0.62
0.29220986 -0.0471977 -0.62
0.29306766 -0.047121577 -0.61900002
0.29487237 -0.0471977 -0.62
0.29572588 -0.047121577 -0.61900002
0.2965751 -0.047045451 -0.61800003
0.29790205 -0.047045451 -0.61800003
0.299229 -0.047045451 -0.61800003
0.30055597 -0.047045451 -0.61800003
0.30188292 -0.047045451 -0.61800003
0.30370051 -0.047121577 -0.61900002
0.3050296 -0.047121577 -0.61900002
0.3063587 -0.047121577 -0.61900002
0.30801851 -0.046969328 -0.61700004
0.30884194 -0.046893205 -0.61600006
0.30915758 -0.046740949 -0.61400002
0.30997029 -0.046664827 -0.61300004
0.31179431 -0.046740949 -0.61400002
0.31311268 -0.046740949 -0.61400002
0.31494313 -0.046817075 -0.61500001
0.31677794 -0.046893205 -0.61600006
-0.23496602 -0.048528954 -0.62
-0.23401161 -0.04860723 -0.62100005
-0.23305289 -0.048685502 -0.62200004
-0.23171733 -0.048685502 -0.62200004
-0.2303818 -0.048685502 -0.62200004
-0.22941449 -0.048763774 -0.62300003
-0.22771069 -0.048685502 -0.62200004
-0.22601122 -0.04860723 -0.62100005
-0.22467782 -0.04860723 -0.62100005
-0.22298475 -0.048528954 -0.62
-0.22165349 -0.048528954 -0.62
-0.21996689 -0.048450682 -0.61900002
-0.21863779 -0.048450682 -0.61900002
-0.21695761 -0.04837241 -0.61800003
-0.21563067 -0.04837241 -0.61800003
-0.2143037 -0.04837241 -0.61800003
-0.21297675 -0.04837241 -0.61800003
-0.21164978 -0.04837241 -0.61800003
-0.21066315 -0.048450682 -0.61900002
-0.20933403 -0.048450682 -0.61900002
-0.20800494 -0.048450682 -0.61900002
-0.20700973 -0.048528954 -0.62
-0.20567846 -0.048528954 -0.62
-0.20434722 -0.048528954 -0.62
-0.19236594 -0.048528954 -0.62
-0.19103469 -0.048528954 -0.62
-0.18970343 -0.048528954 -0.62
-0.18806836 -0.048450682 -0.61900002
-0.18643759 -0.04837241 -0.61800003
-0.18511063 -0.04837241 -0.61800003
-0.18348628 -0.048294138 -0.61700004
-0.18245672 -0.04837241 -0.61800003
-0.18142283 -0.048450682 -0.61900002
-0.1681318 -0.048450682 -0.61900002
-0.1665332 -0.04837241 -0.61800003
-0.16520625 -0.04837241 -0.61800003
-0.16414449 -0.048450682 -0.61900002
-0.16281536 -0.048450682 -0.61900002
-0.16148627 -0.048450682 -0.61900002
-0.15989843 -0.04837241 -0.61800003
-0.15857147 -0.04837241 -0.61800003
-0.15699007 -0.048294138 -0.61700004
-0.15541297 -0.04821587 -0.61600006
-0.15384015 -0.048137594 -0.61500001
-0.15227164 -0.048059322 -0.61400002
-0.15119912 -0.048137594 -0.61500001
-0.15036602 -0.048294138 -0.61700004
-0.14928277 -0.04837241 -0.61800003
-0.14686611 -0.048450682 -0.61900002
-0.145537 -0.048450682 -0.61900002
-0.14444086 -0.048528954 -0.62
-0.14287879 -0.048450682 -0.61900002
-0.14154969 -0.048450682 -0.61900002
-0.13999406 -0.04837241 -0.61800003
-0.13889149 -0.048450682 -0.61900002
-0.13756238 -0.048450682 -0.61900002
-0.13645336 -0.048528954 -0.62
-0.13512211 -0.048528954 -0.62
-0.13357505 -0.048450682 -0.61900002
-0.13224596 -0.048450682 -0.61900002
-0.13112834 -0.048528954 -0.62
-0.12979709 -0.048528954 -0.62
-0.12825865 -0.048450682 -0.61900002
-0.12713459 -0.048528954 -0.62
-0.12580334 -0.048528954 -0.62
-0.12467285 -0.04860723 -0.62100005
-0.12353806 -0.048685502 -0.62200004
-0.12239898 -0.048763774 -0.62300003
-0.12125561 -0.048842046 -0.62400001
-0.11991576 -0.048842046 -0.62400001
-0.11857593 -0.048842046 -0.62400001
-0.11704821 -0.048763774 -0.62300003
-0.11589625 -0.048842046 -0.62400001
-0.11437282 -0.048763774 -0.62300003
-0.11303513 -0.048763774 -0.62300003
-0.11169743 -0.048763774 -0.62300003
-0.11035974 -0.048763774 -0.62300003
-0.10902204 -0.048763774 -0.62300003
-0.1078572 -0.048842046 -0.62400001
-0.10634666 -0.048763774 -0.62300003
-0.10500897 -0.048763774 -0.62300003
-0.10350487 -0.048685502 -0.62200004
-0.10216932 -0.048685502 -0.62200004
-0.10083377 -0.048685502 -0.62200004
-0.099338263 -0.04860723 -0.62100005
-0.098004863 -0.04860723 -0.62100005
-0.09651579 -0.048528954 -0.62
-0.095338069 -0.04860723 -0.62100005
-0.094004668 -0.04860723 -0.62100005
-0.088956639 -0.048763774 -0.62300003
-0.087759577 -0.048842046 -0.62400001
-0.086419739 -0.048842046 -0.62400001
-0.085079901 -0.048842046 -0.62400001
-0.083605863 -0.048763774 -0.62300003
-0.082268171 -0.048763774 -0.62300003
-0.080930471 -0.048763774 -0.62300003
-0.079337269 -0.04860723 -0.62100005
-0.077878252 -0.048528954 -0.62
-0.066215843 -0.048763774 -0.62300003
-0.063642442 -0.048842046 -0.62400001
-0.062202759 -0.048763774 -0.62300003
-0.060865071 -0.048763774 -0.62300003
-0.059622921 -0.048842046 -0.62400001
-0.058283079 -0.048842046 -0.62400001
-0.056943238 -0.048842046 -0.62400001
-0.055514295 -0.048763774 -0.62300003
-0.054089639 -0.048685502 -0.62200004
-0.052669279 -0.04860723 -0.62100005
-0.051335879 -0.04860723 -0.62100005
-0.050002482 -0.04860723 -0.62100005
-0.048669081 -0.04860723 -0.62100005
-0.047335681 -0.04860723 -0.62100005
-0.046076357 -0.048685502 -0.62200004
-0.044812743 -0.048763774 -0.62300003
-0.043544833 -0.048842046 -0.62400001
-0.042204991 -0.048842046 -0.62400001
-0.040996127 -0.048998594 -0.62600005
-0.039715335 -0.049076863 -0.62700003
-0.038246661 -0.048920318 -0.625
-0.036727533 -0.048685502 -0.62200004
-0.035391986 -0.048685502 -0.62200004
-0.034001686 -0.04860723 -0.62100005
-0.032668289 -0.04860723 -0.62100005
-0.031385347 -0.048685502 -0.62200004
-0.030049801 -0.048685502 -0.62200004
-0.028714253 -0.048685502 -0.62200004
-0.027378706 -0.048685502 -0.62200004
-0.026043158 -0.048685502 -0.62200004
-0.024747336 -0.048763774 -0.62300003
-0.02340964 -0.048763774 -0.62300003
-0.022036521 -0.048685502 -0.62200004
-0.020734252 -0.048763774 -0.62300003
-0.019427694 -0.048842046 -0.62400001
-0.018087853 -0.048842046 -0.62400001
-0.016748013 -0.048842046 -0.62400001
-0.015408171 -0.048842046 -0.62400001
-0.014068331 -0.048842046 -0.62400001
-0.01272849 -0.048842046 -0.62400001
-0.011388648 -0.048842046 -0.62400001
-0.010032704 -0.048763774 -0.62300003
-0.0086950101 -0.048763774 -0.62300003
-0.0073573161 -0.048763774 -0.62300003
-0.0060292841 -0.048842046 -0.62400001
-0.0046819281 -0.048763774 -0.62300003
0.0046593826 -0.048528954 -0.62
0.0059906351 -0.048528954 -0.62
0.0073218872 -0.048528954 -0.62
0.0086670965 -0.04860723 -0.62100005
0.010000497 -0.04860723 -0.62100005
0.011352147 -0.048685502 -0.62200004
0.012687693 -0.048685502 -0.62200004
0.014023241 -0.048685502 -0.62200004
0.015334095 -0.04860723 -0.62100005
0.016640654 -0.048528954 -0.62
0.017971905 -0.048528954 -0.62
0.019272024 -0.048450682 -0.61900002
0.020634409 -0.048528954 -0.62
0.021965662 -0.048528954 -0.62
0.02333449 -0.04860723 -0.62100005
0.024667891 -0.04860723 -0.62100005
0.026043158 -0.048685502 -0.62200004
0.027378706 -0.048685502 -0.62200004
0.028760416 -0.048763774 -0.62300003
0.03009811 -0.048763774 -0.62300003
0.031435803 -0.048763774 -0.62300003
0.032773498 -0.048763774 -0.62300003
0.034165945 -0.048842046 -0.62400001
0.035448886 -0.048763774 -0.62300003
0.036786579 -0.048763774 -0.62300003
0.038001888 -0.04860723 -0.62100005
0.039335288 -0.04860723 -0.62100005
0.042002082 -0.04860723 -0.62100005
0.043335482 -0.04860723 -0.62100005
0.044668883 -0.04860723 -0.62100005
0.046076357 -0.048685502 -0.62200004
0.047411904 -0.048685502 -0.62200004
0.048747454 -0.048685502 -0.62200004
0.050083 -0.048685502 -0.62200004
0.059336279 -0.04860723 -0.62100005
0.060669679 -0.04860723 -0.62100005
0.062003076 -0.04860723 -0.62100005
0.063336477 -0.04860723 -0.62100005
0.064669877 -0.04860723 -0.62100005
0.066003278 -0.04860723 -0.62100005
0.067336671 -0.04860723 -0.62100005
0.068670072 -0.04860723 -0.62100005
0.070003472 -0.04860723 -0.62100005
0.071336873 -0.04860723 -0.62100005
0.072670273 -0.04860723 -0.62100005
0.074003674 -0.04860723 -0.62100005
0.075215749 -0.048528954 -0.62
0.076670475 -0.04860723 -0.62100005
0.077878252 -0.048528954 -0.62
0.079209507 -0.048528954 -0.62
0.080540761 -0.048528954 -0.62
0.081872009 -0.048528954 -0.62
0.083337471 -0.04860723 -0.62100005
0.084670871 -0.04860723 -0.62100005
0.086004265 -0.04860723 -0.62100005
0.087337665 -0.04860723 -0.62100005
0.088671066 -0.04860723 -0.62100005
0.090004466 -0.04860723 -0.62100005
0.091337867 -0.04860723 -0.62100005
0.092671268 -0.04860723 -0.62100005
0.094004668 -0.04860723 -0.62100005
0.095184535 -0.048528954 -0.62
0.09667147 -0.04860723 -0.62100005
0.098004863 -0.04860723 -0.62100005
0.099338263 -0.04860723 -0.62100005
0.10067166 -0.04860723 -0.62100005
0.10200506 -0.04860723 -0.62100005
0.10333847 -0.04860723 -0.62100005
0.10467187 -0.04860723 -0.62100005
0.10583455 -0.048528954 -0.62
0.10716581 -0.048528954 -0.62
0.10849705 -0.048528954 -0.62
0.10965116 -0.048450682 -0.61900002
0.11098027 -0.048450682 -0.61900002
0.11212794 -0.04837241 -0.61800003
0.1134549 -0.04837241 -0.61800003
0.11478186 -0.04837241 -0.61800003
0.11610882 -0.04837241 -0.61800003
0.11743578 -0.04837241 -0.61800003
0.12047832 -0.048528954 -0.62
0.12200605 -0.04860723 -0.62100005
0.12333945 -0.04860723 -0.62100005
0.12487362 -0.048685502 -0.62200004
0.12600626 -0.04860723 -0.62100005
0.12733966 -0.04860723 -0.62100005
0.12846585 -0.048528954 -0.62
0.12979709 -0.048528954 -0.62
0.13112834 -0.048528954 -0.62
0.13224596 -0.048450682 -0.61900002
0.13335927 -0.04837241 -0.61800003
0.13446829 -0.048294138 -0.61700004
0.1357931 -0.048294138 -0.61700004
0.13689569 -0.04821587 -0.61600006
0.13821834 -0.04821587 -0.61600006
0.139541 -0.04821587 -0.61600006
0.14109235 -0.048294138 -0.61700004
0.14264797 -0.04837241 -0.61800003
0.14444086 -0.048528954 -0.62
0.14600724 -0.04860723 -0.62100005
0.14734064 -0.04860723 -0.62100005
0.14867404 -0.04860723 -0.62100005
0.15000744 -0.04860723 -0.62100005
0.15134084 -0.04860723 -0.62100005
0.15267424 -0.04860723 -0.62100005
0.15400764 -0.04860723 -0.62100005
0.1550909 -0.048528954 -0.62
0.15642214 -0.048528954 -0.62
0.15775338 -0.048528954 -0.62
0.16973466 -0.048528954 -0.62
0.1721191 -0.048450682 -0.61900002
0.17449497 -0.04837241 -0.61800003
0.17582193 -0.04837241 -0.61800003
0.17714888 -0.04837241 -0.61800003
0.17847583 -0.04837241 -0.61800003
0.17980281 -0.04837241 -0.61800003
0.18112975 -0.04837241 -0.61800003
0.18275195 -0.048450682 -0.61900002
0.18408105 -0.048450682 -0.61900002
0.18570969 -0.048528954 -0.62
0.18704094 -0.048528954 -0.62
0.18806836 -0.048450682 -0.61900002
0.18970343 -0.048528954 -0.62
0.19041845 -0.04837241 -0.61800003
0.19174542 -0.04837241 -0.61800003
0.19307238 -0.04837241 -0.61800003
0.19439934 -0.04837241 -0.61800003
0.19572629 -0.04837241 -0.61800003
0.1967344 -0.048294138 -0.61700004
0.1980592 -0.048294138 -0.61700004
0.199384 -0.048294138 -0.61700004
0.20103413 -0.04837241 -0.61800003
0.20236108 -0.04837241 -0.61800003
0.20368804 -0.04837241 -0.61800003
0.20534673 -0.048450682 -0.61900002
0.20667584 -0.048450682 -0.61900002
0.20834097 -0.048528954 -0.62
0.20967221 -0.048528954 -0.62
0.21100348 -0.048528954 -0.62
0.21233472 -0.048528954 -0.62
0.21366598 -0.048528954 -0.62
0.21499723 -0.048528954 -0.62
0.21667743 -0.04860723 -0.62100005
0.21801081 -0.04860723 -0.62100005
0.218991 -0.048528954 -0.62
0.22032224 -0.048528954 -0.62
0.22058098 -0.048294138 -0.61700004
0.22164385 -0.047667958 -0.60900003
0.22331756 -0.04774623 -0.61000001
0.22462735 -0.04774623 -0.61000001
0.22630751 -0.047824502 -0.611
0.22799198 -0.047902778 -0.61200005
0.22968075 -0.04798105 -0.61300004
0.23175061 -0.048137594 -0.61500001
0.23345013 -0.04821587 -0.61600006
0.2351539 -0.048294138 -0.61700004
0.23686199 -0.04837241 -0.61800003
0.23818894 -0.04837241 -0.61800003
0.23912835 -0.048294138 -0.61700004
0.24045315 -0.048294138 -0.61700004
0.24177796 -0.048294138 -0.61700004
0.24310277 -0.048294138 -0.61700004
0.24482372 -0.04837241 -0.61800003
0.2461507 -0.04837241 -0.61800003
0.24787809 -0.048450682 -0.61900002
0.2492072 -0.048450682 -0.61900002
0.25094104 -0.048528954 -0.62
0.25227228 -0.048528954 -0.62
0.25360355 -0.048528954 -0.62
0.25452361 -0.048450682 -0.61900002
0.2554394 -0.04837241 -0.61800003
0.25635087 -0.048294138 -0.61700004
0.25809333 -0.04837241 -0.61800003
0.25942028 -0.04837241 -0.61800003
0.26074722 -0.04837241 -0.61800003
0.26207417 -0.04837241 -0.61800003
0.26382735 -0.048450682 -0.61900002
0.2647281 -0.04837241 -0.61800003
0.26562455 -0.048294138 -0.61700004
0.26651672 -0.04821587 -0.61600006
0.26783937 -0.04821587 -0.61600006
0.26872507 -0.048137594 -0.61500001
0.2696065 -0.048059322 -0.61400002
0.27048361 -0.04798105 -0.61300004
0.27179983 -0.04798105 -0.61300004
0.2735616 -0.048059322 -0.61400002
0.27532765 -0.048137594 -0.61500001
0.27619833 -0.048059322 -0.61400002
0.27842069 -0.04821587 -0.61600006
0.28019747 -0.048294138 -0.61700004
0.28197858 -0.04837241 -0.61800003
0.28330553 -0.04837241 -0.61800003
0.28417191 -0.048294138 -0.61700004
0.285034 -0.04821587 -0.61600006
0.28682151 -0.048294138 -0.61700004
0.28767934 -0.04821587 -0.61600006
0.28947115 -0.048294138 -0.61700004
0.29079598 -0.048294138 -0.61700004
0.29164732 -0.04821587 -0.61600006
0.29297 -0.04821587 -0.61600006
0.29429266 -0.04821587 -0.61600006
0.29561532 -0.04821587 -0.61600006
0.29693797 -0.04821587 -0.61600006
0.29826063 -0.04821587 -0.61600006
0.29958332 -0.04821587 -0.61600006
0.30090597 -0.04821587 -0.61600006
0.30271927 -0.048294138 -0.61700004
0.30404407 -0.048294138 -0.61700004
0.30437902 -0.048137594 -0.61500001
0.30470541 -0.04798105 -0.61300004
0.30552241 -0.047902778 -0.61200005
0.30683646 -0.047902778 -0.61200005
0.30764702 -0.047824502 -0.611
0.30895895 -0.047824502 -0.611
0.31077871 -0.047902778 -0.61200005
0.31209278 -0.047902778 -0.61200005
0.31340685 -0.047902778 -0.61200005
0.3152352 -0.04798105 -0.61300004
-0.23267822 -0.049940631 -0.62100005
-0.22867802 -0.049940631 -0.62100005
-0.2269785 -0.049860209 -0.62
-0.22564726 -0.049860209 -0.62
-0.2239542 -0.049779788 -0.61900002
-0.2219058 -0.049618952 -0.61700004
-0.22058098 -0.049618952 -0.61700004
-0.21890083 -0.049538534 -0.61600006
-0.21757817 -0.049538534 -0.61600006
-0.21590441 -0.049458109 -0.61500001
-0.2145839 -0.049458109 -0.61500001
-0.21361017 -0.049538534 -0.61600006
-0.21263213 -0.049618952 -0.61700004
-0.2113073 -0.049618952 -0.61700004
-0.21032283 -0.04969937 -0.61800003
-0.20899586 -0.04969937 -0.61800003
-0.20766892 -0.04969937 -0.61800003
-0.20634197 -0.04969937 -0.61800003
-0.20534673 -0.049779788 -0.61900002
-0.20368804 -0.04969937 -0.61800003
-0.20236108 -0.04969937 -0.61800003
-0.199384 -0.049618952 -0.61700004
-0.19540958 -0.049618952 -0.61700004
-0.19275996 -0.049618952 -0.61700004
-0.1911249 -0.049538534 -0.61600006
-0.18980221 -0.049538534 -0.61600006
-0.18847956 -0.049538534 -0.61600006
-0.18685305 -0.049458109 -0.61500001
-0.18553254 -0.049458109 -0.61500001
-0.18451159 -0.049538534 -0.61600006
-0.1828915 -0.049458109 -0.61500001
-0.18216148 -0.049618952 -0.61700004
-0.18112975 -0.04969937 -0.61800003
-0.17980281 -0.04969937 -0.61800003
-0.17876463 -0.049779788 -0.61900002
-0.17051409 -0.04969937 -0.61800003
-0.16918713 -0.04969937 -0.61800003
-0.16758856 -0.049618952 -0.61700004
-0.16599427 -0.049538534 -0.61600006
-0.16413696 -0.049377691 -0.61400002
-0.1628186 -0.049377691 -0.61400002
-0.16202629 -0.049538534 -0.61600006
-0.16070363 -0.049538534 -0.61600006
-0.15912221 -0.049458109 -0.61500001
-0.1580583 -0.049538534 -0.61600006
-0.15648118 -0.049458109 -0.61500001
-0.15465608 -0.049297273 -0.61300004
-0.15308973 -0.049216855 -0.61200005
-0.15177564 -0.049216855 -0.61200005
-0.15046157 -0.049216855 -0.61200005
-0.14939119 -0.049297273 -0.61300004
-0.14807498 -0.049297273 -0.61300004
-0.14699817 -0.049377691 -0.61400002
-0.14591706 -0.049458109 -0.61500001
-0.14483167 -0.049538534 -0.61600006
-0.14374197 -0.049618952 -0.61700004
-0.14241715 -0.049618952 -0.61700004
-0.14086367 -0.049538534 -0.61600006
-0.139541 -0.049538534 -0.61600006
-0.13821834 -0.049538534 -0.61600006
-0.13711792 -0.049618952 -0.61700004
-0.1357931 -0.049618952 -0.61700004
-0.13446829 -0.049618952 -0.61700004
-0.13292769 -0.049538534 -0.61600006
-0.13160503 -0.049538534 -0.61600006
-0.13028236 -0.049538534 -0.61600006
-0.1289597 -0.049538534 -0.61600006
-0.12763704 -0.049538534 -0.61600006
-0.12631437 -0.049538534 -0.61600006
-0.12519462 -0.049618952 -0.61700004
-0.12427133 -0.049779788 -0.61900002
-0.12333945 -0.049940631 -0.62100005
-0.12239898 -0.05010147 -0.62300003
-0.12106129 -0.05010147 -0.62300003
-0.11972359 -0.05010147 -0.62300003
-0.1183859 -0.05010147 -0.62300003
-0.11686034 -0.050021049 -0.62200004
-0.11552478 -0.050021049 -0.62200004
-0.11400566 -0.049940631 -0.62100005
-0.11249081 -0.049860209 -0.62
-0.11133885 -0.049940631 -0.62100005
-0.11000545 -0.049940631 -0.62100005
-0.10867205 -0.049940631 -0.62100005
-0.10733867 -0.049940631 -0.62100005
-0.10600527 -0.049940631 -0.62100005
-0.10467187 -0.049940631 -0.62100005
-0.10317205 -0.049860209 -0.62
-0.10184079 -0.049860209 -0.62
-0.10050954 -0.049860209 -0.62
-0.099178284 -0.049860209 -0.62
-0.097689219 -0.049779788 -0.61900002
-0.096204452 -0.04969937 -0.61800003
-0.094877496 -0.04969937 -0.61800003
-0.09339916 -0.049618952 -0.61700004
-0.092223577 -0.04969937 -0.61800003
-0.086142756 -0.050021049 -0.62200004
-0.084807217 -0.050021049 -0.62200004
-0.083471671 -0.050021049 -0.62200004
-0.082136117 -0.050021049 -0.62200004
-0.08067067 -0.049940631 -0.62100005
-0.079209507 -0.049860209 -0.62
-0.077627033 -0.04969937 -0.61800003
-0.076176621 -0.049618952 -0.61700004
-0.074609175 -0.049458109 -0.61500001
-0.073288657 -0.049458109 -0.61500001
-0.072085164 -0.049538534 -0.61600006
-0.059431825 -0.050021049 -0.62200004
-0.058189679 -0.05010147 -0.62300003
-0.056851983 -0.05010147 -0.62300003
-0.055425186 -0.050021049 -0.62200004
-0.05400268 -0.049940631 -0.62100005
-0.052584462 -0.049860209 -0.62
-0.051170543 -0.049779788 -0.61900002
-0.049760923 -0.04969937 -0.61800003
-0.048433963 -0.04969937 -0.61800003
-0.047107004 -0.04969937 -0.61800003
-0.045854121 -0.049779788 -0.61900002
-0.044596951 -0.049860209 -0.62
-0.043335482 -0.049940631 -0.62100005
-0.042002082 -0.049940631 -0.62100005
-0.040668681 -0.049940631 -0.62100005
-0.039335288 -0.049940631 -0.62100005
-0.038001888 -0.049940631 -0.62100005
-0.036609434 -0.049860209 -0.62
-0.035221286 -0.049779788 -0.61900002
-0.033837426 -0.04969937 -0.61800003
-0.032563075 -0.049779788 -0.61900002
-0.031284425 -0.049860209 -0.62
-0.029953174 -0.049860209 -0.62
-0.028621921 -0.049860209 -0.62
-0.02729067 -0.049860209 -0.62
-0.026001289 -0.049940631 -0.62100005
-0.024667891 -0.049940631 -0.62100005
-0.02333449 -0.049940631 -0.62100005
-0.021965662 -0.049860209 -0.62
-0.020667691 -0.049940631 -0.62100005
-0.019334294 -0.049940631 -0.62100005
-0.018000893 -0.049940631 -0.62100005
-0.016667495 -0.049940631 -0.62100005
-0.015334095 -0.049940631 -0.62100005
-0.014023241 -0.050021049 -0.62200004
-0.012687693 -0.050021049 -0.62200004
-0.0060099601 -0.050021049 -0.62200004
0.0019936576 -0.049779788 -0.61900002
0.0033173948 -0.04969937 -0.61800003
0.0046518678 -0.049779788 -0.61900002
0.0059906351 -0.049860209 -0.62
0.0073218872 -0.049860209 -0.62
0.0086531397 -0.049860209 -0.62
0.0099843917 -0.049860209 -0.62
0.011333896 -0.049940631 -0.62100005
0.012646897 -0.049860209 -0.62
0.013978149 -0.049860209 -0.62
0.015284709 -0.049779788 -0.61900002
0.016586974 -0.04969937 -0.61800003
0.017884945 -0.049618952 -0.61700004
0.019209756 -0.049618952 -0.61700004
0.020534566 -0.049618952 -0.61700004
0.021894805 -0.04969937 -0.61800003
0.023259338 -0.049779788 -0.61900002
0.024588443 -0.049779788 -0.61900002
0.026001289 -0.049940631 -0.62100005
0.02733469 -0.049940631 -0.62100005
0.028668089 -0.049940631 -0.62100005
0.030049801 -0.050021049 -0.62200004
0.031334888 -0.049940631 -0.62100005
0.032668289 -0.049940631 -0.62100005
0.034001686 -0.049940631 -0.62100005
0.035335086 -0.049940631 -0.62100005
0.036668487 -0.049940631 -0.62100005
0.037940688 -0.049860209 -0.62
0.039208602 -0.049779788 -0.61900002
0.043265697 -0.049860209 -0.62
0.044596951 -0.049860209 -0.62
0.045928199 -0.049860209 -0.62
0.047259454 -0.049860209 -0.62
0.048669081 -0.049940631 -0.62100005
0.050002482 -0.049940631 -0.62100005
0.057722669 -0.04969937 -0.61800003
0.059049629 -0.04969937 -0.61800003
0.06047428 -0.049779788 -0.61900002
0.061803382 -0.049779788 -0.61900002
0.063132487 -0.049779788 -0.61900002
0.064461596 -0.049779788 -0.61900002
0.065790705 -0.049779788 -0.61900002
0.067119807 -0.049779788 -0.61900002
0.068448909 -0.049779788 -0.61900002
0.069778018 -0.049779788 -0.61900002
0.071107119 -0.049779788 -0.61900002
0.072319202 -0.04969937 -0.61800003
0.073646165 -0.04969937 -0.61800003
0.074973121 -0.04969937 -0.61800003
0.076300085 -0.04969937 -0.61800003
0.077627033 -0.04969937 -0.61800003
0.078953996 -0.04969937 -0.61800003
0.080410853 -0.049779788 -0.61900002
0.081739962 -0.049779788 -0.61900002
0.083069071 -0.049779788 -0.61900002
0.084398173 -0.049779788 -0.61900002
0.085865766 -0.049860209 -0.62
0.087197013 -0.049860209 -0.62
0.088528268 -0.049860209 -0.62
0.089859523 -0.049860209 -0.62
0.091043696 -0.049779788 -0.61900002
0.092223577 -0.04969937 -0.61800003
0.093550533 -0.04969937 -0.61800003
