# .PCD v0.7 - Point Cloud Data file format
VERSION 0.7
FIELDS x y z
SIZE 4 4 4
TYPE F F F
COUNT 1 1 1
WIDTH 1338
HEIGHT 1
VIEWPOINT 0 0 0 1 0 0 0
POINTS 1338
DATA ascii
-0.042868469 0.10841262 -0.72600001
-0.041366518 0.10856196 -0.72700006
-0.039860271 0.10871129 -0.72800004
-0.038297124 0.10871129 -0.72800004
-0.036784433 0.10886061 -0.72900003
-0.03526745 0.10900994 -0.73000002
-0.033838499 0.10945792 -0.73300004
-0.032528721 0.11035389 -0.73900002
-0.031193173 0.11124988 -0.74500006
-0.11583827 0.10803122 -0.73400003
-0.11379523 0.10758968 -0.73100001
-0.11207212 0.1074425 -0.73000002
-0.11020193 0.10714813 -0.72800004
-0.10819109 0.10670659 -0.72500002
-0.1064873 0.10655941 -0.72400004
-0.10464288 0.10626505 -0.72200006
-0.10294981 0.10611786 -0.72100002
-0.10126106 0.10597068 -0.72000003
-0.099438101 0.10567632 -0.71800005
-0.097896434 0.10567632 -0.71800005
-0.096220553 0.10552914 -0.71700001
-0.09454897 0.10538195 -0.71600002
-0.092881687 0.10523477 -0.71500003
-0.09134645 0.10523477 -0.71500003
-0.089811213 0.10523477 -0.71500003
-0.08815252 0.10508759 -0.71400005
-0.086619437 0.10508759 -0.71400005
-0.085086346 0.10508759 -0.71400005
-0.083553255 0.10508759 -0.71400005
-0.082020171 0.10508759 -0.71400005
-0.08037436 0.10494041 -0.71300006
-0.078843415 0.10494041 -0.71300006
-0.077204041 0.10479323 -0.71200001
-0.075675249 0.10479323 -0.71200001
-0.074146457 0.10479323 -0.71200001
-0.071088865 0.10479323 -0.71200001
-0.069560081 0.10479323 -0.71200001
-0.068031281 0.10479323 -0.71200001
-0.066502489 0.10479323 -0.71200001
-0.065064952 0.10494041 -0.71300006
-0.063623123 0.10508759 -0.71400005
-0.062090036 0.10508759 -0.71400005
-0.060641762 0.10523477 -0.71500003
-0.059023861 0.10508759 -0.71400005
-0.057571296 0.10523477 -0.71500003
-0.056114428 0.10538195 -0.71600002
-0.054500822 0.10523477 -0.71500003
-0.053039663 0.10538195 -0.71600002
-0.051502287 0.10538195 -0.71600002
-0.050034687 0.10552914 -0.71700001
-0.048562795 0.10567632 -0.71800005
-0.047086604 0.1058235 -0.71900004
-0.04566947 0.10611786 -0.72100002
-0.044243742 0.10641223 -0.72300005
-0.042868469 0.10685377 -0.72600001
-0.041423418 0.10714813 -0.72800004
-0.039915022 0.10729531 -0.72900003
-0.038349729 0.10729531 -0.72900003
-0.036834888 0.1074425 -0.73000002
-0.035364073 0.10773686 -0.73200005
-0.033930827 0.1081784 -0.73500001
-0.032704789 0.10935586 -0.74300003
-0.11599609 0.10660022 -0.73500001
-0.11395091 0.10616513 -0.73200005
-0.11222564 0.10602009 -0.73100001
-0.1103533 0.10573002 -0.72900003
-0.10848955 0.10543995 -0.72700006
-0.10663438 0.10514988 -0.72500002
-0.1047878 0.10485981 -0.72300005
-0.10294981 0.10456974 -0.72100002
-0.10126106 0.10442471 -0.72000003
-0.099576592 0.10427967 -0.71900004
-0.097896434 0.10413464 -0.71800005
-0.096220553 0.1039896 -0.71700001
-0.094681025 0.1039896 -0.71700001
-0.093011588 0.10384457 -0.71600002
-0.091474205 0.10384457 -0.71600002
-0.089811213 0.10369954 -0.71500003
-0.088275984 0.10369954 -0.71500003
-0.086740747 0.10369954 -0.71500003
-0.08520551 0.10369954 -0.71500003
-0.083553255 0.10355451 -0.71400005
-0.082020171 0.10355451 -0.71400005
-0.08037436 0.10340948 -0.71300006
-0.078843415 0.10340948 -0.71300006
-0.077204041 0.10326444 -0.71200001
-0.075675249 0.10326444 -0.71200001
-0.074146457 0.10326444 -0.71200001
-0.072617657 0.10326444 -0.71200001
-0.071088865 0.10326444 -0.71200001
-0.069560081 0.10326444 -0.71200001
-0.068031281 0.10326444 -0.71200001
-0.066595897 0.10340948 -0.71300006
-0.065156206 0.10355451 -0.71400005
-0.063623123 0.10355451 -0.71400005
-0.062090036 0.10355451 -0.71400005
-0.060641762 0.10369954 -0.71500003
-0.059106525 0.10369954 -0.71500003
-0.057651814 0.10384457 -0.71600002
-0.0561928 0.1039896 -0.71700001
-0.054577045 0.10384457 -0.71600002
-0.05311374 0.1039896 -0.71700001
-0.051574215 0.1039896 -0.71700001
-0.050034687 0.1039896 -0.71700001
-0.048630431 0.10427967 -0.71900004
-0.047217581 0.10456974 -0.72100002
-0.04566947 0.10456974 -0.72100002
-0.044304933 0.10500485 -0.72400004
-0.042868469 0.10529491 -0.72600001
-0.041423418 0.10558499 -0.72800004
-0.039915022 0.10573002 -0.72900003
-0.038349729 0.10573002 -0.72900003
-0.036885347 0.10602009 -0.73100001
-0.035364073 0.10616513 -0.73200005
-0.033930827 0.10660022 -0.73500001
-0.11615391 0.10516494 -0.73600006
-0.11426225 0.10487916 -0.73400003
-0.11237917 0.10459339 -0.73200005
-0.11065605 0.10445049 -0.73100001
-0.10878801 0.10416472 -0.72900003
-0.10692855 0.10387895 -0.72700006
-0.10493274 0.10345029 -0.72400004
-0.1030926 0.10316452 -0.72200006
-0.10126106 0.10287873 -0.72000003
-0.099576592 0.10273585 -0.71900004
-0.097896434 0.10259297 -0.71800005
-0.096354753 0.10259297 -0.71800005
-0.094681025 0.10245007 -0.71700001
-0.093141489 0.10245007 -0.71700001
-0.091474205 0.10230719 -0.71600002
-0.089936823 0.10230719 -0.71600002
-0.088399448 0.10230719 -0.71600002
-0.086862065 0.10230719 -0.71600002
-0.08520551 0.10216431 -0.71500003
-0.083670273 0.10216431 -0.71500003
-0.082135044 0.10216431 -0.71500003
-0.080487087 0.10202142 -0.71400005
-0.078953996 0.10202142 -0.71400005
-0.077312477 0.10187853 -0.71300006
-0.075675249 0.10173564 -0.71200001
-0.074146457 0.10173564 -0.71200001
-0.072617657 0.10173564 -0.71200001
-0.071088865 0.10173564 -0.71200001
-0.06965778 0.10187853 -0.71300006
-0.068126835 0.10187853 -0.71300006
-0.066689298 0.10202142 -0.71400005
-0.065247461 0.10216431 -0.71500003
-0.063712232 0.10216431 -0.71500003
-0.062176995 0.10216431 -0.71500003
-0.060726572 0.10230719 -0.71600002
-0.059189189 0.10230719 -0.71600002
-0.057651814 0.10230719 -0.71600002
-0.0561928 0.10245007 -0.71700001
-0.054653272 0.10245007 -0.71700001
-0.053187821 0.10259297 -0.71800005
-0.051646151 0.10259297 -0.71800005
-0.050104473 0.10259297 -0.71800005
-0.048630431 0.10273585 -0.71900004
-0.047152095 0.10287873 -0.72000003
-0.04566947 0.10302162 -0.72100002
-0.044243742 0.1033074 -0.72300005
-0.042868469 0.10373606 -0.72600001
-0.041366518 0.10387895 -0.72700006
-0.039915022 0.10416472 -0.72900003
-0.038349729 0.10416472 -0.72900003
-0.036885347 0.10445049 -0.73100001
-0.035364073 0.10459339 -0.73200005
-0.033930827 0.10502204 -0.73500001
-0.11615391 0.10358461 -0.73600006
-0.11441791 0.10344386 -0.73500001
-0.11268621 0.10330313 -0.73400003
-0.11095881 0.10316239 -0.73300004
-0.10893723 0.10274016 -0.73000002
-0.10722271 0.10259943 -0.72900003
-0.10507767 0.10203647 -0.72500002
-0.10323539 0.10175499 -0.72300005
-0.10140169 0.1014735 -0.72100002
-0.099715084 0.10133277 -0.72000003
-0.09803278 0.10119203 -0.71900004
-0.096488953 0.10119203 -0.71900004
-0.094813079 0.10105129 -0.71800005
-0.093141489 0.10091054 -0.71700001
-0.09160196 0.10091054 -0.71700001
-0.089936823 0.1007698 -0.71600002
-0.088399448 0.1007698 -0.71600002
-0.086862065 0.1007698 -0.71600002
-0.085324682 0.1007698 -0.71600002
-0.083787292 0.1007698 -0.71600002
-0.082135044 0.10062907 -0.71500003
-0.080487087 0.10048833 -0.71400005
-0.078953996 0.10048833 -0.71400005
-0.077312477 0.10034759 -0.71300006
-0.075675249 0.10020684 -0.71200001
-0.074250601 0.10034759 -0.71300006
-0.072719656 0.10034759 -0.71300006
-0.071188718 0.10034759 -0.71300006
-0.06965778 0.10034759 -0.71300006
-0.068126835 0.10034759 -0.71300006
-0.066782698 0.10062907 -0.71500003
-0.065338716 0.1007698 -0.71600002
-0.063801341 0.1007698 -0.71600002
-0.062350914 0.10091054 -0.71700001
-0.060896203 0.10105129 -0.71800005
-0.059354525 0.10105129 -0.71800005
-0.057812855 0.10105129 -0.71800005
-0.056349546 0.10119203 -0.71900004
-0.054805722 0.10119203 -0.71900004
-0.053261898 0.10119203 -0.71900004
-0.051718079 0.10119203 -0.71900004
-0.050174255 0.10119203 -0.71900004
-0.048698064 0.10133277 -0.72000003
-0.047217581 0.1014735 -0.72100002
-0.045732815 0.10161425 -0.72200006
-0.044243742 0.10175499 -0.72300005
-0.042868469 0.1021772 -0.72600001
-0.041366518 0.10231795 -0.72700006
-0.039915022 0.10259943 -0.72900003
-0.038349729 0.10259943 -0.72900003
-0.036885347 0.1028809 -0.73100001
-0.035364073 0.10302165 -0.73200005
-0.033930827 0.10344386 -0.73500001
-0.11441791 0.10186569 -0.73500001
-0.11268621 0.10172711 -0.73400003
-0.11111018 0.10172711 -0.73400003
-0.10908646 0.10131133 -0.73100001
-0.10736979 0.10117273 -0.73000002
-0.10536755 0.10075696 -0.72700006
-0.10337818 0.10034118 -0.72400004
-0.10140169 0.099925399 -0.72100002
-0.099715084 0.099786803 -0.72000003
-0.09803278 0.099648215 -0.71900004
-0.096488953 0.099648215 -0.71900004
-0.094813079 0.099509627 -0.71800005
-0.093271405 0.099509627 -0.71800005
-0.09160196 0.099371023 -0.71700001
-0.090062432 0.099371023 -0.71700001
-0.088522904 0.099371023 -0.71700001
-0.086983375 0.099371023 -0.71700001
-0.085443847 0.099371023 -0.71700001
-0.083787292 0.099232435 -0.71600002
-0.082249917 0.099232435 -0.71600002
-0.080599807 0.09909384 -0.71500003
-0.078953996 0.098955251 -0.71400005
-0.077420905 0.098955251 -0.71400005
-0.075781539 0.098816663 -0.71300006
-0.074250601 0.098816663 -0.71300006
-0.072719656 0.098816663 -0.71300006
-0.071288556 0.098955251 -0.71400005
-0.06965778 0.098816663 -0.71300006
-0.068222389 0.098955251 -0.71400005
-0.066782698 0.09909384 -0.71500003
-0.065338716 0.099232435 -0.71600002
-0.063801341 0.099232435 -0.71600002
-0.062350914 0.099371023 -0.71700001
-0.060896203 0.099509627 -0.71800005
-0.059437193 0.099648215 -0.71900004
-0.057893373 0.099648215 -0.71900004
-0.056349546 0.099648215 -0.71900004
-0.054805722 0.099648215 -0.71900004
-0.053335976 0.099786803 -0.72000003
-0.05179001 0.099786803 -0.72000003
-0.050244037 0.099786803 -0.72000003
-0.0487657 0.099925399 -0.72100002
-0.047283076 0.10006399 -0.72200006
-0.045732815 0.10006399 -0.72200006
-0.044243742 0.10020259 -0.72300005
-0.042868469 0.10061836 -0.72600001
-0.041423418 0.10089555 -0.72800004
-0.039915022 0.10103414 -0.72900003
-0.038402334 0.10117273 -0.73000002
-0.036885347 0.10131133 -0.73100001
-0.035364073 0.10144992 -0.73200005
-0.033930827 0.10186569 -0.73500001
-0.10938492 0.10001463 -0.73300004
-0.10751687 0.099741735 -0.73100001
-0.10551248 0.0993324 -0.72800004
-0.10352097 0.098923057 -0.72500002
-0.10154234 0.09851373 -0.72200006
-0.099715084 0.09824083 -0.72000003
-0.09803278 0.098104388 -0.71900004
-0.096488953 0.098104388 -0.71900004
-0.094813079 0.097967945 -0.71800005
-0.093271405 0.097967945 -0.71800005
-0.091729723 0.097967945 -0.71800005
-0.090188049 0.097967945 -0.71800005
-0.088646375 0.097967945 -0.71800005
-0.087104701 0.097967945 -0.71800005
-0.085443847 0.097831495 -0.71700001
-0.083904319 0.097831495 -0.71700001
-0.082249917 0.097695053 -0.71600002
-0.080599807 0.097558603 -0.71500003
-0.07906457 0.097558603 -0.71500003
-0.077420905 0.09742216 -0.71400005
-0.075781539 0.097285718 -0.71300006
-0.074354738 0.09742216 -0.71400005
-0.072821647 0.09742216 -0.71400005
-0.071288556 0.09742216 -0.71400005
-0.069755472 0.09742216 -0.71400005
-0.068317935 0.097558603 -0.71500003
-0.066876099 0.097695053 -0.71600002
-0.065429971 0.097831495 -0.71700001
-0.063890442 0.097831495 -0.71700001
-0.062350914 0.097831495 -0.71700001
-0.060896203 0.097967945 -0.71800005
-0.059437193 0.098104388 -0.71900004
-0.057893373 0.098104388 -0.71900004
-0.056349546 0.098104388 -0.71900004
-0.054805722 0.098104388 -0.71900004
-0.053335976 0.09824083 -0.72000003
-0.05179001 0.09824083 -0.72000003
-0.050244037 0.09824083 -0.72000003
-0.0487657 0.09837728 -0.72100002
-0.047217581 0.09837728 -0.72100002
-0.045732815 0.09851373 -0.72200006
-0.044304933 0.098786615 -0.72400004
-0.042868469 0.099059507 -0.72600001
-0.041423418 0.0993324 -0.72800004
-0.039915022 0.099468842 -0.72900003
-0.038402334 0.099605285 -0.73000002
-0.03693581 0.099878184 -0.73200005
-0.035412386 0.10001463 -0.73300004
-0.033930827 0.10028751 -0.73500001
-0.1092357 0.098306447 -0.73200005
-0.10736979 0.098037846 -0.73000002
-0.10536755 0.097634956 -0.72700006
-0.10337818 0.097232059 -0.72400004
-0.10154234 0.096963465 -0.72200006
-0.099853575 0.096829161 -0.72100002
-0.098169126 0.096694864 -0.72000003
-0.096623152 0.096694864 -0.72000003
-0.094945125 0.096560568 -0.71900004
-0.093401305 0.096560568 -0.71900004
-0.091857478 0.096560568 -0.71900004
-0.090313658 0.096560568 -0.71900004
-0.088769838 0.096560568 -0.71900004
-0.087104701 0.096426271 -0.71800005
-0.085563019 0.096426271 -0.71800005
-0.083904319 0.096291967 -0.71700001
-0.082249917 0.09615767 -0.71600002
-0.080712534 0.09615767 -0.71600002
-0.07906457 0.096023373 -0.71500003
-0.077420905 0.095889077 -0.71400005
-0.075887822 0.095889077 -0.71400005
-0.074354738 0.095889077 -0.71400005
-0.072923638 0.096023373 -0.71500003
-0.071388401 0.096023373 -0.71500003
-0.069853172 0.096023373 -0.71500003
-0.068413481 0.09615767 -0.71600002
-0.066876099 0.09615767 -0.71600002
-0.065429971 0.096291967 -0.71700001
-0.063890442 0.096291967 -0.71700001
-0.062350914 0.096291967 -0.71700001
-0.060896203 0.096426271 -0.71800005
-0.059437193 0.096560568 -0.71900004
-0.057893373 0.096560568 -0.71900004
-0.056349546 0.096560568 -0.71900004
-0.054881945 0.096694864 -0.72000003
-0.053335976 0.096694864 -0.72000003
-0.05179001 0.096694864 -0.72000003
-0.050244037 0.096694864 -0.72000003
-0.0487657 0.096829161 -0.72100002
-0.047217581 0.096829161 -0.72100002
-0.045732815 0.096963465 -0.72200006
-0.044304933 0.097232059 -0.72400004
-0.042868469 0.097500652 -0.72600001
-0.041423418 0.097769253 -0.72800004
-0.039915022 0.09790355 -0.72900003
-0.038402334 0.098037846 -0.73000002
-0.03693581 0.098306447 -0.73200005
-0.035412386 0.098440744 -0.73300004
-0.10736979 0.096470401 -0.73000002
-0.10536755 0.096073955 -0.72700006
-0.10337818 0.095677495 -0.72400004
-0.10154234 0.095413201 -0.72200006
-0.099853575 0.095281042 -0.72100002
-0.098305464 0.095281042 -0.72100002
-0.096623152 0.095148891 -0.72000003
-0.094945125 0.09501674 -0.71900004
-0.093401305 0.09501674 -0.71900004
-0.091857478 0.09501674 -0.71900004
-0.090313658 0.09501674 -0.71900004
-0.088769838 0.09501674 -0.71900004
-0.087226011 0.09501674 -0.71900004
-0.085563019 0.094884589 -0.71800005
-0.083904319 0.094752431 -0.71700001
-0.08236479 0.094752431 -0.71700001
-0.080712534 0.094620287 -0.71600002
-0.07906457 0.094488136 -0.71500003
-0.077420905 0.094355986 -0.71400005
-0.075887822 0.094355986 -0.71400005
-0.074354738 0.094355986 -0.71400005
-0.072923638 0.094488136 -0.71500003
-0.071388401 0.094488136 -0.71500003
-0.069853172 0.094488136 -0.71500003
-0.068413481 0.094620287 -0.71600002
-0.066969499 0.094752431 -0.71700001
-0.065429971 0.094752431 -0.71700001
-0.063890442 0.094752431 -0.71700001
-0.062437881 0.094884589 -0.71800005
-0.060896203 0.094884589 -0.71800005
-0.059437193 0.09501674 -0.71900004
-0.057893373 0.09501674 -0.71900004
-0.056349546 0.09501674 -0.71900004
-0.054881945 0.095148891 -0.72000003
-0.053335976 0.095148891 -0.72000003
-0.051861938 0.095281042 -0.72100002
-0.050313819 0.095281042 -0.72100002
-0.0487657 0.095281042 -0.72100002
-0.047283076 0.095413201 -0.72200006
-0.045796156 0.095545344 -0.72300005
-0.044304933 0.095677495 -0.72400004
-0.042868469 0.095941797 -0.72600001
-0.041423418 0.096206099 -0.72800004
-0.039915022 0.09633825 -0.72900003
-0.038402334 0.096470401 -0.73000002
0.15667444 0.093166627 -0.70500004
0.15841258 0.09329877 -0.70600003
0.16015501 0.093430921 -0.70700002
0.16540809 0.093827382 -0.71000004
0.16750804 0.09329877 -0.70600003
-0.10551248 0.094642952 -0.72800004
-0.10352097 0.094252937 -0.72500002
-0.10168298 0.093992934 -0.72300005
-0.099992074 0.093862928 -0.72200006
-0.098305464 0.093732923 -0.72100002
-0.096623152 0.093602918 -0.72000003
-0.095077179 0.093602918 -0.72000003
-0.093531206 0.093602918 -0.72000003
-0.091985233 0.093602918 -0.72000003
-0.09043926 0.093602918 -0.72000003
-0.088893294 0.093602918 -0.72000003
-0.087226011 0.093472913 -0.71900004
-0.085682184 0.093472913 -0.71900004
-0.084021345 0.093342915 -0.71800005
-0.08236479 0.093212903 -0.71700001
-0.080712534 0.093082905 -0.71600002
-0.079175152 0.093082905 -0.71600002
-0.077529341 0.0929529 -0.71500003
-0.075887822 0.092822894 -0.71400005
-0.074354738 0.092822894 -0.71400005
-0.072923638 0.0929529 -0.71500003
-0.071488246 0.093082905 -0.71600002
-0.069950864 0.093082905 -0.71600002
-0.068413481 0.093082905 -0.71600002
-0.066969499 0.093212903 -0.71700001
-0.065521233 0.093342915 -0.71800005
-0.063979559 0.093342915 -0.71800005
-0.062437881 0.093342915 -0.71800005
-0.060981017 0.093472913 -0.71900004
-0.059437193 0.093472913 -0.71900004
-0.057893373 0.093472913 -0.71900004
-0.056349546 0.093472913 -0.71900004
-0.054881945 0.093602918 -0.72000003
-0.053335976 0.093602918 -0.72000003
-0.05179001 0.093602918 -0.72000003
-0.050313819 0.093732923 -0.72100002
-0.0487657 0.093732923 -0.72100002
-0.047283076 0.093862928 -0.72200006
-0.045796156 0.093992934 -0.72300005
-0.044366129 0.094252937 -0.72500002
-0.042927518 0.094512954 -0.72700006
-0.041423418 0.094642952 -0.72800004
-0.039915022 0.094772957 -0.72900003
0.14587091 0.091522858 -0.70400006
0.14738251 0.091522858 -0.70400006
0.14910562 0.091652863 -0.70500004
0.15040575 0.091522858 -0.70400006
0.15191735 0.091522858 -0.70400006
0.15364692 0.091652863 -0.70500004
0.15516068 0.091652863 -0.70500004
0.15667444 0.091652863 -0.70500004
0.15818821 0.091652863 -0.70500004
0.15992849 0.09178286 -0.70600003
0.16190174 0.092042863 -0.708
0.16365278 0.092172876 -0.70900005
0.17005675 0.091522858 -0.70400006
0.17132464 0.091392845 -0.70300001
0.17283411 0.091392845 -0.70300001
-0.10536755 0.092951946 -0.72700006
-0.10352097 0.092696227 -0.72500002
-0.10168298 0.092440523 -0.72300005
-0.099992074 0.092312664 -0.72200006
-0.098441817 0.092312664 -0.72200006
-0.096757345 0.092184804 -0.72100002
-0.095077179 0.092056945 -0.72000003
-0.093531206 0.092056945 -0.72000003
-0.091985233 0.092056945 -0.72000003
-0.090564869 0.092184804 -0.72100002
-0.088893294 0.092056945 -0.72000003
-0.087347329 0.092056945 -0.72000003
-0.085682184 0.091929093 -0.71900004
-0.084021345 0.091801234 -0.71800005
-0.08236479 0.091673374 -0.71700001
-0.080825262 0.091673374 -0.71700001
-0.079175152 0.091545515 -0.71600002
-0.077529341 0.091417663 -0.71500003
-0.075994104 0.091417663 -0.71500003
-0.074458875 0.091417663 -0.71500003
-0.073025629 0.091545515 -0.71600002
-0.071588084 0.091673374 -0.71700001
-0.070048563 0.091673374 -0.71700001
-0.068509027 0.091673374 -0.71700001
-0.067062907 0.091801234 -0.71800005
-0.065521233 0.091801234 -0.71800005
-0.064068668 0.091929093 -0.71900004
-0.06252484 0.091929093 -0.71900004
-0.060981017 0.091929093 -0.71900004
-0.059437193 0.091929093 -0.71900004
-0.057893373 0.091929093 -0.71900004
-0.056427918 0.092056945 -0.72000003
-0.054881945 0.092056945 -0.72000003
-0.053335976 0.092056945 -0.72000003
-0.05179001 0.092056945 -0.72000003
-0.050313819 0.092184804 -0.72100002
-0.0487657 0.092184804 -0.72100002
-0.047283076 0.092312664 -0.72200006
-0.045859497 0.092568375 -0.72400004
-0.044427324 0.092824087 -0.72600001
-0.042986564 0.093079805 -0.72800004
0.13922858 0.089627668 -0.70100003
0.14093453 0.08975552 -0.70200002
0.14264475 0.08988338 -0.70300001
0.14435929 0.090011239 -0.70400006
0.14587091 0.090011239 -0.70400006
0.14738251 0.090011239 -0.70400006
0.14910562 0.090139098 -0.70500004
0.15040575 0.090011239 -0.70400006
0.15191735 0.090011239 -0.70400006
0.15364692 0.090139098 -0.70500004
0.15516068 0.090139098 -0.70500004
0.15667444 0.090139098 -0.70500004
0.15818821 0.090139098 -0.70500004
0.15970196 0.090139098 -0.70500004
0.16167307 0.09039481 -0.70700002
0.16319112 0.09039481 -0.70700002
0.16447622 0.09026695 -0.70600003
0.16575702 0.090139098 -0.70500004
0.16703352 0.090011239 -0.70400006
0.16854514 0.090011239 -0.70400006
0.16981518 0.08988338 -0.70300001
0.17132464 0.08988338 -0.70300001
0.17283411 0.08988338 -0.70300001
0.17409559 0.08975552 -0.70200002
0.17560291 0.08975552 -0.70200002
0.17711022 0.08975552 -0.70200002
-0.10522261 0.091265231 -0.72600001
-0.10337818 0.091013812 -0.72400004
-0.10168298 0.090888105 -0.72300005
-0.099992074 0.090762399 -0.72200006
-0.098441817 0.090762399 -0.72200006
-0.096757345 0.090636685 -0.72100002
-0.095077179 0.090510972 -0.72000003
-0.093531206 0.090510972 -0.72000003
-0.091985233 0.090510972 -0.72000003
-0.09043926 0.090510972 -0.72000003
-0.088893294 0.090510972 -0.72000003
-0.087226011 0.090385266 -0.71900004
-0.085563019 0.090259559 -0.71800005
-0.083904319 0.090133846 -0.71700001
-0.082249917 0.090008132 -0.71600002
-0.080712534 0.090008132 -0.71600002
-0.07906457 0.089882426 -0.71500003
-0.077420905 0.08975672 -0.71400005
-0.075994104 0.089882426 -0.71500003
-0.074563012 0.090008132 -0.71600002
-0.073127612 0.090133846 -0.71700001
-0.071588084 0.090133846 -0.71700001
-0.070146263 0.090259559 -0.71800005
-0.068604581 0.090259559 -0.71800005
-0.067062907 0.090259559 -0.71800005
-0.065612487 0.090385266 -0.71900004
-0.064068668 0.090385266 -0.71900004
-0.06252484 0.090385266 -0.71900004
-0.061065827 0.090510972 -0.72000003
-0.059519857 0.090510972 -0.72000003
-0.057973891 0.090510972 -0.72000003
-0.056427918 0.090510972 -0.72000003
-0.054881945 0.090510972 -0.72000003
-0.053335976 0.090510972 -0.72000003
-0.05179001 0.090510972 -0.72000003
-0.050313819 0.090636685 -0.72100002
-0.04883334 0.090762399 -0.72200006
-0.047348563 0.090888105 -0.72300005
-0.045922838 0.091139525 -0.72500002
-0.044488519 0.091390945 -0.72700006
0.13922858 0.088122495 -0.70100003
0.14093453 0.088248201 -0.70200002
0.14264475 0.088373907 -0.70300001
0.14435929 0.088499621 -0.70400006
0.14587091 0.088499621 -0.70400006
0.14738251 0.088499621 -0.70400006
0.14910562 0.088625334 -0.70500004
0.15061939 0.088625334 -0.70500004
0.15191735 0.088499621 -0.70400006
0.15364692 0.088625334 -0.70500004
0.15516068 0.088625334 -0.70500004
0.15689667 0.08875104 -0.70600003
0.15841258 0.08875104 -0.70600003
0.15992849 0.08875104 -0.70600003
0.1614444 0.08875104 -0.70600003
0.16296031 0.08875104 -0.70600003
0.16424325 0.088625334 -0.70500004
0.16575702 0.088625334 -0.70500004
0.16703352 0.088499621 -0.70400006
0.16854514 0.088499621 -0.70400006
0.16981518 0.088373907 -0.70300001
0.17132464 0.088373907 -0.70300001
0.17258826 0.088248201 -0.70200002
0.17409559 0.088248201 -0.70200002
0.17535277 0.088122495 -0.70100003
0.17685793 0.088122495 -0.70100003
0.17810866 0.087996781 -0.70000005
-0.10337818 0.089459263 -0.72400004
-0.10168298 0.089335702 -0.72300005
-0.10013057 0.089335702 -0.72300005
-0.098441817 0.089212134 -0.72200006
-0.096891552 0.089212134 -0.72200006
-0.095209226 0.089088567 -0.72100002
-0.093531206 0.088965006 -0.72000003
-0.091985233 0.088965006 -0.72000003
-0.09043926 0.088965006 -0.72000003
-0.088769838 0.088841446 -0.71900004
-0.087104701 0.088717885 -0.71800005
-0.085443847 0.088594317 -0.71700001
-0.083904319 0.088594317 -0.71700001
-0.082249917 0.088470757 -0.71600002
-0.080712534 0.088470757 -0.71600002
-0.079175152 0.088470757 -0.71600002
-0.077529341 0.088347197 -0.71500003
-0.076100394 0.088470757 -0.71600002
-0.074667148 0.088594317 -0.71700001
-0.073229611 0.088717885 -0.71800005
-0.071687937 0.088717885 -0.71800005
-0.070146263 0.088717885 -0.71800005
-0.068700135 0.088841446 -0.71900004
-0.067156307 0.088841446 -0.71900004
-0.065612487 0.088841446 -0.71900004
-0.064157769 0.088965006 -0.72000003
-0.062611803 0.088965006 -0.72000003
-0.061065827 0.088965006 -0.72000003
-0.059519857 0.088965006 -0.72000003
-0.057973891 0.088965006 -0.72000003
-0.056427918 0.088965006 -0.72000003
-0.054958172 0.089088567 -0.72100002
-0.053410053 0.089088567 -0.72100002
-0.051861938 0.089088567 -0.72100002
-0.050453387 0.089335702 -0.72300005
-0.048968609 0.089459263 -0.72400004
-0.04747954 0.089582823 -0.72500002
0.13413654 0.086246632 -0.69800001
0.1358296 0.0863702 -0.69900006
0.13752694 0.08649376 -0.70000005
0.13922858 0.086617321 -0.70100003
0.14093453 0.086740881 -0.70200002
0.14264475 0.086864442 -0.70300001
0.14435929 0.08698801 -0.70400006
0.14587091 0.08698801 -0.70400006
0.14738251 0.08698801 -0.70400006
0.14910562 0.08711157 -0.70500004
0.15061939 0.08711157 -0.70500004
0.15213315 0.08711157 -0.70500004
0.15364692 0.08711157 -0.70500004
0.15516068 0.08711157 -0.70500004
0.15689667 0.08723513 -0.70600003
0.15841258 0.08723513 -0.70600003
0.15992849 0.08723513 -0.70600003
0.1614444 0.08723513 -0.70600003
0.16296031 0.08723513 -0.70600003
0.16447622 0.08723513 -0.70600003
0.16575702 0.08711157 -0.70500004
0.16703352 0.08698801 -0.70400006
0.16854514 0.08698801 -0.70400006
0.17005675 0.08698801 -0.70400006
0.17132464 0.086864442 -0.70300001
0.17283411 0.086864442 -0.70300001
0.17409559 0.086740881 -0.70200002
0.17535277 0.086617321 -0.70100003
0.17685793 0.086617321 -0.70100003
0.17810866 0.08649376 -0.70000005
0.17935511 0.0863702 -0.69900006
-0.10013057 0.087783284 -0.72300005
-0.098578162 0.087783284 -0.72300005
-0.096891552 0.08766187 -0.72200006
-0.095209226 0.087540448 -0.72100002
-0.093661107 0.087540448 -0.72100002
-0.091985233 0.087419041 -0.72000003
-0.09043926 0.087419041 -0.72000003
-0.088769838 0.087297626 -0.71900004
-0.087104701 0.087176211 -0.71800005
-0.085443847 0.087054789 -0.71700001
-0.083904319 0.087054789 -0.71700001
-0.082249917 0.086933374 -0.71600002
-0.080712534 0.086933374 -0.71600002
-0.079175152 0.086933374 -0.71600002
-0.077637769 0.086933374 -0.71600002
-0.076100394 0.086933374 -0.71600002
-0.074667148 0.087054789 -0.71700001
-0.073229611 0.087176211 -0.71800005
-0.071787775 0.087297626 -0.71900004
-0.070243955 0.087297626 -0.71900004
-0.068795681 0.087419041 -0.72000003
-0.067156307 0.087297626 -0.71900004
-0.065703735 0.087419041 -0.72000003
-0.064157769 0.087419041 -0.72000003
-0.062611803 0.087419041 -0.72000003
-0.061065827 0.087419041 -0.72000003
-0.059602521 0.087540448 -0.72100002
-0.057973891 0.087419041 -0.72000003
-0.056506291 0.087540448 -0.72100002
-0.054958172 0.087540448 -0.72100002
-0.053484134 0.08766187 -0.72200006
-0.051933873 0.08766187 -0.72200006
0.13095121 0.084626481 -0.69700003
0.13244779 0.084626481 -0.69700003
0.13413654 0.084747896 -0.69800001
0.1358296 0.084869318 -0.69900006
0.13733049 0.084869318 -0.69900006
0.13902998 0.084990732 -0.70000005
0.14093453 0.085233562 -0.70200002
0.14244184 0.085233562 -0.70200002
0.14435929 0.085476398 -0.70400006
0.14587091 0.085476398 -0.70400006
0.14738251 0.085476398 -0.70400006
0.14910562 0.085597806 -0.70500004
0.15061939 0.085597806 -0.70500004
0.15213315 0.085597806 -0.70500004
0.15364692 0.085597806 -0.70500004
0.15516068 0.085597806 -0.70500004
0.15689667 0.08571922 -0.70600003
0.15841258 0.08571922 -0.70600003
0.15970196 0.085597806 -0.70500004
0.1614444 0.08571922 -0.70600003
0.16296031 0.08571922 -0.70600003
0.16447622 0.08571922 -0.70600003
0.16575702 0.085597806 -0.70500004
0.16703352 0.085476398 -0.70400006
0.16854514 0.085476398 -0.70400006
0.17005675 0.085476398 -0.70400006
0.17156836 0.085476398 -0.70400006
0.17283411 0.085354976 -0.70300001
0.17409559 0.085233562 -0.70200002
0.17560291 0.085233562 -0.70200002
0.17685793 0.085112147 -0.70100003
0.17810866 0.084990732 -0.70000005
0.17909852 0.084747896 -0.69800001
0.18033852 0.084626481 -0.69700003
0.1818351 0.084626481 -0.69700003
-0.095209226 0.085992329 -0.72100002
-0.093661107 0.085992329 -0.72100002
-0.091985233 0.085873067 -0.72000003
-0.09043926 0.085873067 -0.72000003
-0.088769838 0.085753798 -0.71900004
-0.087104701 0.08563453 -0.71800005
-0.085443847 0.085515261 -0.71700001
-0.083787292 0.085395992 -0.71600002
-0.082249917 0.085395992 -0.71600002
-0.080825262 0.085515261 -0.71700001
-0.079285733 0.085515261 -0.71700001
-0.077637769 0.085395992 -0.71600002
-0.076206677 0.085515261 -0.71700001
-0.074771293 0.08563453 -0.71800005
-0.073229611 0.08563453 -0.71800005
-0.071787775 0.085753798 -0.71900004
-0.070243955 0.085753798 -0.71900004
-0.068700135 0.085753798 -0.71900004
-0.067156307 0.085753798 -0.71900004
-0.065703735 0.085873067 -0.72000003
-0.064157769 0.085873067 -0.72000003
-0.062698759 0.085992329 -0.72100002
-0.06115064 0.085992329 -0.72100002
-0.059602521 0.085992329 -0.72100002
-0.05805441 0.085992329 -0.72100002
-0.056584664 0.086111605 -0.72200006
-0.055034399 0.086111605 -0.72200006
0.12908317 0.082891367 -0.69500005
0.13076334 0.083010629 -0.69600004
0.13225777 0.083010629 -0.69600004
0.13394438 0.083129898 -0.69700003
0.1358296 0.083368436 -0.69900006
0.13733049 0.083368436 -0.69900006
0.13922858 0.083606973 -0.70100003
0.14093453 0.083726235 -0.70200002
0.14264475 0.083845504 -0.70300001
0.14435929 0.08396478 -0.70400006
0.14587091 0.08396478 -0.70400006
0.14759186 0.084084041 -0.70500004
0.14931712 0.08420331 -0.70600003
0.15061939 0.084084041 -0.70500004
0.15213315 0.084084041 -0.70500004
0.15386485 0.08420331 -0.70600003
0.15516068 0.084084041 -0.70500004
0.15689667 0.08420331 -0.70600003
0.15841258 0.08420331 -0.70600003
0.15992849 0.08420331 -0.70600003
0.1614444 0.08420331 -0.70600003
0.16296031 0.08420331 -0.70600003
0.16447622 0.08420331 -0.70600003
0.16575702 0.084084041 -0.70500004
0.16727078 0.084084041 -0.70500004
0.16854514 0.08396478 -0.70400006
0.17005675 0.08396478 -0.70400006
0.17156836 0.08396478 -0.70400006
0.17283411 0.083845504 -0.70300001
0.17409559 0.083726235 -0.70200002
0.17535277 0.083606973 -0.70100003
0.17660564 0.083487704 -0.70000005
0.17759977 0.083249167 -0.69800001
0.17884193 0.083129898 -0.69700003
0.18007977 0.083010629 -0.69600004
0.18157423 0.083010629 -0.69600004
0.18306866 0.083010629 -0.69600004
-0.091985233 0.084327102 -0.72000003
-0.090313658 0.084209979 -0.71900004
-0.088646375 0.084092863 -0.71800005
-0.087104701 0.084092863 -0.71800005
-0.085443847 0.083975732 -0.71700001
-0.083787292 0.083858617 -0.71600002
-0.082249917 0.083858617 -0.71600002
-0.080825262 0.083975732 -0.71700001
-0.079285733 0.083975732 -0.71700001
-0.077746198 0.083975732 -0.71700001
-0.076206677 0.083975732 -0.71700001
-0.074771293 0.084092863 -0.71800005
-0.073331602 0.084209979 -0.71900004
-0.071787775 0.084209979 -0.71900004
-0.070243955 0.084209979 -0.71900004
-0.068795681 0.084327102 -0.72000003
-0.067249708 0.084327102 -0.72000003
-0.065703735 0.084327102 -0.72000003
0.1217967 0.081516199 -0.69600004
0.123114 0.081399076 -0.69500005
0.12442699 0.081281953 -0.69400001
0.13038757 0.081281953 -0.69400001
0.13225777 0.081516199 -0.69600004
0.13394438 0.081633314 -0.69700003
0.1358296 0.081867561 -0.69900006
0.13752694 0.081984684 -0.70000005
0.13922858 0.0821018 -0.70100003
0.14093453 0.082218923 -0.70200002
0.14264475 0.082336038 -0.70300001
0.14435929 0.082453169 -0.70400006
0.14607811 0.082570285 -0.70500004
0.14780121 0.082687408 -0.70600003
0.14931712 0.082687408 -0.70600003
0.15083303 0.082687408 -0.70600003
0.15234894 0.082687408 -0.70600003
0.15386485 0.082687408 -0.70600003
0.15538076 0.082687408 -0.70600003
0.15667444 0.082570285 -0.70500004
0.15818821 0.082570285 -0.70500004
0.15970196 0.082570285 -0.70500004
0.16121572 0.082570285 -0.70500004
0.16272949 0.082570285 -0.70500004
0.16424325 0.082570285 -0.70500004
0.16575702 0.082570285 -0.70500004
0.16727078 0.082570285 -0.70500004
0.16854514 0.082453169 -0.70400006
0.17005675 0.082453169 -0.70400006
0.17132464 0.082336038 -0.70300001
0.17283411 0.082336038 -0.70300001
0.17409559 0.082218923 -0.70200002
0.17535277 0.0821018 -0.70100003
0.17635335 0.081867561 -0.69900006
0.17759977 0.081750438 -0.69800001
0.17858535 0.081516199 -0.69600004
0.18007977 0.081516199 -0.69600004
0.18157423 0.081516199 -0.69600004
0.18306866 0.081516199 -0.69600004
0.18429793 0.081399076 -0.69500005
-0.087104701 0.082551181 -0.71800005
-0.085443847 0.082436204 -0.71700001
-0.083787292 0.082321234 -0.71600002
-0.08236479 0.082436204 -0.71700001
-0.080825262 0.082436204 -0.71700001
-0.079285733 0.082436204 -0.71700001
-0.077746198 0.082436204 -0.71700001
-0.076312967 0.082551181 -0.71800005
0.12478557 0.080021761 -0.69600004
0.13733049 0.080366679 -0.69900006
0.13922858 0.080596626 -0.70100003
0.14093453 0.080711596 -0.70200002
0.14264475 0.080826573 -0.70300001
0.14435929 0.08094155 -0.70400006
0.14607811 0.08105652 -0.70500004
0.14780121 0.081171498 -0.70600003
0.14952861 0.081286468 -0.70700002
0.15083303 0.081171498 -0.70600003
0.15234894 0.081171498 -0.70600003
0.15386485 0.081171498 -0.70600003
0.15516068 0.08105652 -0.70500004
0.15667444 0.08105652 -0.70500004
0.15818821 0.08105652 -0.70500004
0.15970196 0.08105652 -0.70500004
0.16121572 0.08105652 -0.70500004
0.16272949 0.08105652 -0.70500004
0.16424325 0.08105652 -0.70500004
0.16599213 0.081171498 -0.70600003
0.16727078 0.08105652 -0.70500004
0.16854514 0.08094155 -0.70400006
0.17005675 0.08094155 -0.70400006
0.17156836 0.08094155 -0.70400006
0.17283411 0.080826573 -0.70300001
0.17409559 0.080711596 -0.70200002
0.17535277 0.080596626 -0.70100003
0.17660564 0.080481656 -0.70000005
0.17759977 0.080251701 -0.69800001
0.17884193 0.080136731 -0.69700003
0.18007977 0.080021761 -0.69600004
0.18157423 0.080021761 -0.69600004
0.18306866 0.080021761 -0.69600004
0.18429793 0.079906784 -0.69500005
0.18552288 0.079791807 -0.69400001
0.18674354 0.079676837 -0.69300002
-0.083904319 0.080896676 -0.71700001
-0.08236479 0.080896676 -0.71700001
-0.080825262 0.080896676 -0.71700001
-0.079285733 0.080896676 -0.71700001
-0.077746198 0.080896676 -0.71700001
0.14244184 0.079204276 -0.70200002
0.14435929 0.079429932 -0.70400006
0.14607811 0.079542756 -0.70500004
0.14780121 0.07965558 -0.70600003
0.14952861 0.079768412 -0.70700002
0.15104666 0.079768412 -0.70700002
0.15234894 0.07965558 -0.70600003
0.15364692 0.079542756 -0.70500004
0.15516068 0.079542756 -0.70500004
0.15645221 0.079429932 -0.70400006
0.15818821 0.079542756 -0.70500004
0.15970196 0.079542756 -0.70500004
0.16121572 0.079542756 -0.70500004
0.16272949 0.079542756 -0.70500004
0.16447622 0.07965558 -0.70600003
0.16599213 0.07965558 -0.70600003
0.16727078 0.079542756 -0.70500004
0.16854514 0.079429932 -0.70400006
0.17005675 0.079429932 -0.70400006
0.17156836 0.079429932 -0.70400006
0.17283411 0.0793171 -0.70300001
0.17409559 0.079204276 -0.70200002
0.17535277 0.079091452 -0.70100003
0.17660564 0.078978628 -0.70000005
0.17785423 0.078865804 -0.69900006
0.17909852 0.078752972 -0.69800001
0.18007977 0.078527316 -0.69600004
0.1818351 0.078640141 -0.69700003
0.18333168 0.078640141 -0.69700003
0.18482828 0.078640141 -0.69700003
0.18605754 0.078527316 -0.69600004
0.1872825 0.078414492 -0.69500005
0.18823156 0.078188837 -0.69300002
0.14456435 0.078028992 -0.70500004
0.14649251 0.078250349 -0.70700002
0.1482199 0.078361027 -0.708
0.1497401 0.078361027 -0.708
0.15104666 0.078250349 -0.70700002
0.15234894 0.07813967 -0.70600003
0.15364692 0.078028992 -0.70500004
0.15494059 0.077918313 -0.70400006
0.15645221 0.077918313 -0.70400006
0.15796383 0.077918313 -0.70400006
0.15947543 0.077918313 -0.70400006
0.16098705 0.077918313 -0.70400006
0.16272949 0.078028992 -0.70500004
0.16424325 0.078028992 -0.70500004
0.16599213 0.07813967 -0.70600003
0.16727078 0.078028992 -0.70500004
0.16854514 0.077918313 -0.70400006
0.17005675 0.077918313 -0.70400006
0.17156836 0.077918313 -0.70400006
0.17283411 0.077807635 -0.70300001
0.17409559 0.077696957 -0.70200002
0.17535277 0.077586278 -0.70100003
0.17685793 0.077586278 -0.70100003
0.17785423 0.077364922 -0.69900006
0.17909852 0.077254236 -0.69800001
0.18059725 0.077254236 -0.69800001
0.18209599 0.077254236 -0.69800001
0.1835947 0.077254236 -0.69800001
0.18509345 0.077254236 -0.69800001
0.18659218 0.077254236 -0.69800001
0.18782143 0.077143557 -0.69700003
0.18877479 0.076922201 -0.69500005
0.18999331 0.076811515 -0.69400001
0.19093163 0.076590158 -0.69200003
0.19186136 0.076368801 -0.69000006
0.0081013143 0.074453123 -0.68600005
0.078918569 0.074561656 -0.68700004
0.080744743 0.074887253 -0.69000006
0.14669971 0.076840825 -0.708
0.14842926 0.076949365 -0.70900005
0.14995161 0.076949365 -0.70900005
0.15104666 0.0767323 -0.70700002
0.15234894 0.076623768 -0.70600003
0.15364692 0.076515235 -0.70500004
0.15494059 0.076406702 -0.70400006
0.15645221 0.076406702 -0.70400006
0.15796383 0.076406702 -0.70400006
0.15947543 0.076406702 -0.70400006
0.16098705 0.076406702 -0.70400006
0.16249867 0.076406702 -0.70400006
0.16424325 0.076515235 -0.70500004
0.16575702 0.076515235 -0.70500004
0.16727078 0.076515235 -0.70500004
0.16854514 0.076406702 -0.70400006
0.17005675 0.076406702 -0.70400006
0.17156836 0.076406702 -0.70400006
0.17307997 0.076406702 -0.70400006
0.17560291 0.076189637 -0.70200002
0.17685793 0.076081105 -0.70100003
0.17810866 0.075972572 -0.70000005
0.17935511 0.075864047 -0.69900006
0.18059725 0.075755507 -0.69800001
0.18235688 0.075864047 -0.69900006
0.18385775 0.075864047 -0.69900006
0.18535864 0.075864047 -0.69900006
0.18712683 0.075972572 -0.70000005
0.18836038 0.075864047 -0.69900006
0.18958965 0.075755507 -0.69800001
0.1908146 0.075646974 -0.69700003
0.19148345 0.075321376 -0.69400001
0.0081131235 0.073086537 -0.68700004
0.0095603243 0.072873771 -0.68500006
0.077330731 0.072980158 -0.68600005
0.079148315 0.073299304 -0.68900001
0.080861762 0.073512077 -0.69100004
0.14842926 0.075427011 -0.70900005
0.1497401 0.075320624 -0.708
0.15083303 0.075107858 -0.70600003
0.15213315 0.075001471 -0.70500004
0.15342897 0.074895091 -0.70400006
0.15494059 0.074895091 -0.70400006
0.15622997 0.074788697 -0.70300001
0.15773943 0.074788697 -0.70300001
0.15924889 0.074788697 -0.70300001
0.16075836 0.074788697 -0.70300001
0.16249867 0.074895091 -0.70400006
0.16401029 0.074895091 -0.70400006
0.18111472 0.074469544 -0.70000005
0.18261775 0.074469544 -0.70000005
0.18412077 0.074469544 -0.70000005
0.18588899 0.074575931 -0.70100003
0.18739416 0.074575931 -0.70100003
0.18889932 0.074575931 -0.70100003
0.19013289 0.074469544 -0.70000005
0.19136214 0.074363165 -0.69900006
0.0081249326 0.07171566 -0.68800002
0.0095603243 0.071402952 -0.68500006
0.010998935 0.07119447 -0.68300003
0.074167922 0.071298711 -0.68400002
0.075857759 0.071507186 -0.68600005
0.077330731 0.071507186 -0.68600005
0.079148315 0.071819901 -0.68900001
0.080978781 0.072132617 -0.69200003
0.1547205 0.073279232 -0.70300001
0.1879288 0.073279232 -0.70300001
0.18943825 0.073279232 -0.70300001
0.0081131235 0.070136309 -0.68700004
0.0095603243 0.069932133 -0.68500006
0.010998935 0.06972795 -0.68300003
0.074059494 0.06972795 -0.68300003
0.075747184 0.069932133 -0.68500006
0.077330731 0.070034221 -0.68600005
0.079378068 0.070544675 -0.69100004
0.081446871 0.071055129 -0.69600004
0.0081249326 0.06876114 -0.68800002
0.0095603243 0.068461314 -0.68500006
0.010998935 0.06826143 -0.68300003
0.012428959 0.068061538 -0.68100005
0.01387079 0.067961596 -0.68000001
0.072486691 0.06816148 -0.68200004
0.074059494 0.06826143 -0.68300003
0.075747184 0.068461314 -0.68500006
0.077443451 0.068661198 -0.68700004
0.079378068 0.069060974 -0.69100004
0.081446871 0.069560692 -0.69600004
0.082941309 0.069560692 -0.69600004
0.0052380483 0.068164051 -0.69700003
0.0067056464 0.067870654 -0.69400001
0.0081367427 0.06738168 -0.68900001
0.0095742801 0.067088291 -0.68600005
0.011031143 0.066990495 -0.68500006
0.012483711 0.066892698 -0.68400002
0.013911587 0.066697106 -0.68200004
0.015330872 0.066501506 -0.68000001
0.070918173 0.066599309 -0.68100005
0.072486691 0.066697106 -0.68200004
0.074059494 0.066794902 -0.68300003
0.075747184 0.066990495 -0.68500006
0.077443451 0.067186087 -0.68700004
0.079378068 0.067577273 -0.69100004
0.081329852 0.067968458 -0.69500005
0.082941309 0.068066254 -0.69600004
0.0052455631 0.06676311 -0.69800001
0.0067153089 0.066476166 -0.69500005
0.008160362 0.066093571 -0.69100004
0.0096021937 0.06580662 -0.68800002
0.011063351 0.065710969 -0.68700004
0.012520214 0.065615326 -0.68600005
0.013952383 0.065424025 -0.68400002
0.015353419 0.065137081 -0.68100005
0.016741572 0.064850129 -0.67800003
0.066238388 0.064850129 -0.67800003
0.067694172 0.064850129 -0.67800003
0.069353946 0.065041423 -0.68000001
0.070918173 0.065137081 -0.68100005
0.072486691 0.065232724 -0.68200004
0.074059494 0.065328375 -0.68300003
0.075747184 0.065519676 -0.68500006
0.077443451 0.065710969 -0.68700004
0.079492941 0.066189215 -0.69200003
0.081446871 0.066571817 -0.69600004
0.083179645 0.06676311 -0.69800001
0.0052455631 0.065264374 -0.69800001
0.0067249713 0.065077372 -0.69600004
0.008160362 0.064609863 -0.69100004
0.0096161505 0.064422861 -0.68900001
0.011079455 0.064329356 -0.68800002
0.012538465 0.064235859 -0.68700004
0.013972782 0.064048856 -0.68500006
0.01539851 0.063861847 -0.68300003
0.016766263 0.063487843 -0.67900002
0.018143682 0.063207336 -0.67600006
0.066238388 0.063394338 -0.67800003
0.067694172 0.063394338 -0.67800003
0.069251955 0.063487843 -0.67900002
0.070814028 0.06358134 -0.68000001
0.072380401 0.063674845 -0.68100005
0.074059494 0.063861847 -0.68300003
0.075747184 0.064048856 -0.68500006
0.077443451 0.064235859 -0.68700004
0.079378068 0.064609863 -0.69100004
0.081212826 0.06489037 -0.69400001
0.082941309 0.065077372 -0.69600004
0.0037683027 0.064131066 -0.70200002
0.0052455631 0.063765645 -0.69800001
0.0067153089 0.06349159 -0.69500005
0.008160362 0.063126169 -0.69100004
0.0096301073 0.06303481 -0.69000006
0.011095558 0.062943451 -0.68900001
0.012556715 0.0628521 -0.68800002
0.01399318 0.062669396 -0.68600005
0.015421054 0.062486682 -0.68400002
0.016815649 0.06221262 -0.68100005
0.01819736 0.061938554 -0.67800003
0.019595176 0.061755847 -0.67600006
0.064591505 0.061755847 -0.67600006
0.066238388 0.061938554 -0.67800003
0.067694172 0.061938554 -0.67800003
0.069251955 0.062029909 -0.67900002
0.070814028 0.062121261 -0.68000001
0.072380401 0.06221262 -0.68100005
0.073951066 0.062303975 -0.68200004
0.075747184 0.062578037 -0.68500006
0.077443451 0.062760748 -0.68700004
0.079492941 0.063217521 -0.69200003
0.081212826 0.063400231 -0.69400001
0.082941309 0.063582942 -0.69600004
0.0052380483 0.062177707 -0.69700003
0.0067056464 0.061910082 -0.69400001
0.008160362 0.061642464 -0.69100004
0.0096301073 0.061553258 -0.69000006
0.011095558 0.061464045 -0.68900001
0.012556715 0.061374839 -0.68800002
0.01399318 0.061196428 -0.68600005
0.015443601 0.061107218 -0.68500006
0.016840342 0.060839593 -0.68200004
0.0182242 0.060571969 -0.67900002
0.019595176 0.060304351 -0.67600006
0.0209844 0.060125932 -0.67400002
0.022431599 0.060125932 -0.67400002
0.023843372 0.060036726 -0.67300004
0.0311148 0.060125932 -0.67400002
0.032562003 0.060125932 -0.67400002
0.0340092 0.060125932 -0.67400002
0.0354564 0.060125932 -0.67400002
0.036903601 0.060125932 -0.67400002
0.038350802 0.060125932 -0.67400002
0.061505999 0.060125932 -0.67400002
0.063046604 0.060215138 -0.67500001
0.064591505 0.060304351 -0.67600006
0.066238388 0.060482763 -0.67800003
0.067694172 0.060482763 -0.67800003
0.069251955 0.060571969 -0.67900002
0.070814028 0.060661178 -0.68000001
0.072486691 0.060839593 -0.68200004
0.074167922 0.061018009 -0.68400002
0.075857759 0.061196428 -0.68600005
0.077668905 0.061464045 -0.68900001
0.079378068 0.061642464 -0.69100004
0.081212826 0.061910082 -0.69400001
0.0052455631 0.06076818 -0.69800001
0.0067153089 0.060507003 -0.69500005
0.0081721712 0.060245819 -0.69200003
0.0096301073 0.060071699 -0.69000006
0.011111663 0.060071699 -0.69000006
0.012574966 0.059984636 -0.68900001
0.014013578 0.059810519 -0.68700004
0.015466146 0.059723459 -0.68600005
0.016889727 0.059549335 -0.68400002
0.018304719 0.059375215 -0.68200004
0.019682135 0.059114031 -0.67900002
0.021077804 0.058939915 -0.67700005
0.022498164 0.058852855 -0.67600006
0.023914229 0.058765791 -0.67500001
0.025326001 0.058678731 -0.67400002
0.026773201 0.058678731 -0.67400002
0.0282204 0.058678731 -0.67400002
0.029667601 0.058678731 -0.67400002
0.0311148 0.058678731 -0.67400002
0.032562003 0.058678731 -0.67400002
0.0340092 0.058678731 -0.67400002
0.0354564 0.058678731 -0.67400002
0.036958352 0.058765791 -0.67500001
0.038407702 0.058765791 -0.67500001
0.039857045 0.058765791 -0.67500001
0.0412452 0.058678731 -0.67400002
0.042629063 0.058591671 -0.67300004
0.044008624 0.058504611 -0.67200005
0.058524642 0.058591671 -0.67300004
0.059969697 0.058591671 -0.67300004
0.061505999 0.058678731 -0.67400002
0.063046604 0.058765791 -0.67500001
0.064591505 0.058852855 -0.67600006
0.066238388 0.059026975 -0.67800003
0.067694172 0.059026975 -0.67800003
0.069251955 0.059114031 -0.67900002
0.070918173 0.059288155 -0.68100005
0.072592974 0.059462275 -0.68300003
0.074384794 0.059723459 -0.68600005
0.07596834 0.059810519 -0.68700004
0.07778164 0.060071699 -0.69000006
0.079492941 0.060245819 -0.69200003
0.080978781 0.060245819 -0.69200003
0.0052455631 0.059269447 -0.69800001
0.0067056464 0.058929794 -0.69400001
0.008160362 0.058675058 -0.69100004
0.0096301073 0.058590144 -0.69000006
0.011111663 0.058590144 -0.69000006
0.012574966 0.058505226 -0.68900001
0.014013578 0.058335405 -0.68700004
0.015466146 0.058250491 -0.68600005
0.01691442 0.05816558 -0.68500006
0.018358398 0.058080662 -0.68400002
0.019769097 0.057910837 -0.68200004
0.021140071 0.057656094 -0.67900002
0.022531444 0.057486273 -0.67700005
0.023914229 0.057316441 -0.67500001
0.025326001 0.057231531 -0.67400002
0.026733479 0.057146616 -0.67300004
0.02817853 0.057146616 -0.67300004
0.029579569 0.057061706 -0.67200005
0.031022472 0.057061706 -0.67200005
0.032513689 0.057146616 -0.67300004
0.0340092 0.057231531 -0.67400002
0.0354564 0.057231531 -0.67400002
0.036958352 0.057316441 -0.67500001
0.038464602 0.057401359 -0.67600006
0.039916098 0.057401359 -0.67600006
0.041306395 0.057316441 -0.67500001
0.042629063 0.057146616 -0.67300004
0.044008624 0.057061706 -0.67200005
0.045383889 0.056976788 -0.671
0.055469196 0.056976788 -0.671
0.056994773 0.057061706 -0.67200005
0.058524642 0.057146616 -0.67300004
0.059969697 0.057146616 -0.67300004
0.061505999 0.057231531 -0.67400002
0.063046604 0.057316441 -0.67500001
0.064495951 0.057316441 -0.67500001
0.066238388 0.057571184 -0.67800003
0.067694172 0.057571184 -0.67800003
0.069251955 0.057656094 -0.67900002
0.071022309 0.057910837 -0.68200004
0.072911829 0.058250491 -0.68600005
0.074493222 0.058335405 -0.68700004
0.076189496 0.058505226 -0.68900001
0.07778164 0.058590144 -0.69000006
0.079378068 0.058675058 -0.69100004
0.080861762 0.058675058 -0.69100004
0.0067056464 0.057439655 -0.69400001
0.008160362 0.057191357 -0.69100004
0.0096301073 0.057108592 -0.69000006
0.011111663 0.057108592 -0.69000006
0.012574966 0.057025824 -0.68900001
0.014013578 0.056860294 -0.68700004
0.015466146 0.056777529 -0.68600005
0.01691442 0.056694765 -0.68500006
0.018331559 0.056529228 -0.68300003
0.01974011 0.056363698 -0.68100005
0.021108938 0.0561154 -0.67800003
0.022498164 0.05594987 -0.67600006
0.023878802 0.055784333 -0.67400002
0.025326001 0.055784333 -0.67400002
0.026693756 0.055618804 -0.67200005
0.028136661 0.055618804 -0.67200005
0.029579569 0.055618804 -0.67200005
0.031022472 0.055618804 -0.67200005
0.032513689 0.055701569 -0.67300004
0.0340092 0.055784333 -0.67400002
0.035509005 0.055867098 -0.67500001
0.036958352 0.055867098 -0.67500001
0.038407702 0.055867098 -0.67500001
0.039916098 0.05594987 -0.67600006
0.041306395 0.055867098 -0.67500001
0.042692404 0.055784333 -0.67400002
0.044008624 0.055618804 -0.67200005
0.045383889 0.055536035 -0.671
0.046824649 0.055536035 -0.671
0.048193481 0.055453271 -0.67000002
0.052509312 0.055453271 -0.67000002
0.054028444 0.055536035 -0.671
0.055551868 0.055618804 -0.67200005
0.057079587 0.055701569 -0.67300004
0.058524642 0.055701569 -0.67300004
0.060058802 0.055784333 -0.67400002
0.061505999 0.055784333 -0.67400002
0.063046604 0.055867098 -0.67500001
0.064495951 0.055867098 -0.67500001
0.066140696 0.056032635 -0.67700005
0.067694172 0.0561154 -0.67800003
0.069251955 0.056198165 -0.67900002
0.071126446 0.056529228 -0.68300003
0.073018119 0.056860294 -0.68700004
0.074710086 0.057025824 -0.68900001
0.076410659 0.057191357 -0.69100004
0.0067056464 0.055949509 -0.69400001
0.008160362 0.055707656 -0.69100004
0.0096301073 0.055627037 -0.69000006
0.011111663 0.055627037 -0.69000006
0.012556715 0.055465795 -0.68800002
0.014013578 0.05538518 -0.68700004
0.015466146 0.055304561 -0.68600005
0.01691442 0.055223942 -0.68500006
0.018331559 0.055062704 -0.68300003
0.01974011 0.054901466 -0.68100005
0.021108938 0.054659609 -0.67800003
0.022498164 0.054498374 -0.67600006
