# .PCD v0.7 - Point Cloud Data file format
VERSION 0.7
FIELDS x y z
SIZE 4 4 4
TYPE F F F
COUNT 1 1 1
WIDTH 1374
HEIGHT 1
VIEWPOINT 0 0 0 1 0 0 0
POINTS 1374
DATA ascii
0.023807945 0.11477794 -0.67200005
0.02525085 0.11477794 -0.67200005
0.026654031 0.11460713 -0.671
0.028094789 0.11460713 -0.671
0.029535549 0.11460713 -0.671
0.030976305 0.11460713 -0.671
0.032368753 0.11443634 -0.67000002
0.033807363 0.11443634 -0.67000002
0.035245977 0.11443634 -0.67000002
0.036629833 0.11426553 -0.66900003
0.038066301 0.11426553 -0.66900003
0.039502762 0.11426553 -0.66900003
0.040939227 0.11426553 -0.66900003
0.042375695 0.11426553 -0.66900003
0.043746665 0.11409473 -0.66800004
0.045180984 0.11409473 -0.66800004
0.046615303 0.11409473 -0.66800004
0.04797769 0.11392394 -0.66700006
0.0492617 0.11358233 -0.66500002
0.050537128 0.11324073 -0.66300005
0.051882338 0.11306994 -0.66200006
0.053303774 0.11306994 -0.66200006
0.054642536 0.11289912 -0.66100001
0.055977009 0.11272833 -0.66000003
0.063980632 0.11699834 -0.68500006
0.065546997 0.11716915 -0.68600005
0.066726871 0.11665674 -0.68300003
-0.093888715 0.11991251 -0.71100003
-0.092362069 0.11991251 -0.71100003
-0.090835422 0.11991251 -0.71100003
-0.089183167 0.11974385 -0.71000004
-0.08753521 0.1195752 -0.70900005
-0.08577022 0.11923789 -0.70700002
-0.084132992 0.11906924 -0.70600003
-0.082500063 0.11890059 -0.70500004
-0.080986306 0.11890059 -0.70500004
-0.079359815 0.11873194 -0.70400006
-0.077848196 0.11873194 -0.70400006
-0.076336585 0.11873194 -0.70400006
-0.074931256 0.11890059 -0.70500004
-0.073417492 0.11890059 -0.70500004
-0.072005719 0.11906924 -0.70600003
-0.070489801 0.11906924 -0.70600003
-0.068973899 0.11906924 -0.70600003
-0.067553535 0.11923789 -0.70700002
-0.065942079 0.11906924 -0.70600003
-0.064517416 0.11923789 -0.70700002
-0.062999368 0.11923789 -0.70700002
-0.061568268 0.11940654 -0.708
-0.06013288 0.1195752 -0.70900005
-0.058610529 0.1195752 -0.70900005
-0.0571687 0.11974385 -0.71000004
-0.055722568 0.11991251 -0.71100003
-0.051142633 0.11991251 -0.71100003
-0.049615987 0.11991251 -0.71100003
0.012647971 0.11687674 -0.69300002
0.014095171 0.11653944 -0.69100004
0.015488692 0.11586483 -0.68700004
0.016889727 0.11535887 -0.68400002
0.018251039 0.11468425 -0.68000001
0.019595176 0.11400965 -0.67600006
0.0209844 0.11367233 -0.67400002
0.022431599 0.11367233 -0.67400002
0.023843372 0.11350369 -0.67300004
0.02525085 0.11333504 -0.67200005
0.026693756 0.11333504 -0.67200005
0.028094789 0.11316637 -0.671
0.029535549 0.11316637 -0.671
0.030976305 0.11316637 -0.671
0.032368753 0.11299772 -0.67000002
0.033807363 0.11299772 -0.67000002
0.035245977 0.11299772 -0.67000002
0.036629833 0.11282907 -0.66900003
0.038066301 0.11282907 -0.66900003
0.039502762 0.11282907 -0.66900003
0.040939227 0.11282907 -0.66900003
0.042439036 0.11299772 -0.67000002
0.043877643 0.11299772 -0.67000002
0.045316253 0.11299772 -0.67000002
0.046754867 0.11299772 -0.67000002
0.048121549 0.11282907 -0.66900003
0.049483933 0.11266042 -0.66800004
0.050765801 0.11232311 -0.66600001
0.052117452 0.11215445 -0.66500002
0.053464811 0.1119858 -0.66400003
0.054725204 0.1116485 -0.66200006
0.064074032 0.11569618 -0.68600005
0.065546997 0.11569618 -0.68600005
0.06692227 0.11552753 -0.68500006
-0.085891537 0.11788633 -0.708
-0.084252164 0.11771984 -0.70700002
-0.082617082 0.11755333 -0.70600003
-0.080986306 0.11738683 -0.70500004
-0.079472542 0.11738683 -0.70500004
-0.077958778 0.11738683 -0.70500004
-0.076445013 0.11738683 -0.70500004
-0.074931256 0.11738683 -0.70500004
-0.073521629 0.11755333 -0.70600003
-0.072005719 0.11755333 -0.70600003
-0.070589647 0.11771984 -0.70700002
-0.06916929 0.11788633 -0.708
-0.067649081 0.11788633 -0.708
-0.06612888 0.11788633 -0.708
-0.064699933 0.11805286 -0.70900005
-0.063177586 0.11805286 -0.70900005
-0.061655235 0.11805286 -0.70900005
-0.060217693 0.11821935 -0.71000004
-0.058693193 0.11821935 -0.71000004
-0.0571687 0.11821935 -0.71000004
0.014095171 0.11505574 -0.69100004
0.015466146 0.11422321 -0.68600005
0.016889727 0.11389019 -0.68400002
0.01827788 0.11339068 -0.68100005
0.019653149 0.11289116 -0.67800003
0.02104667 0.11255815 -0.67600006
0.022464881 0.11239164 -0.67500001
0.023878802 0.11222513 -0.67400002
0.02525085 0.11189213 -0.67200005
0.026693756 0.11189213 -0.67200005
0.028094789 0.11172561 -0.671
0.029535549 0.11172561 -0.671
0.030976305 0.11172561 -0.671
0.032417066 0.11172561 -0.671
0.033857822 0.11172561 -0.671
0.035298582 0.11172561 -0.671
0.036684588 0.11155911 -0.67000002
0.038123198 0.11155911 -0.67000002
0.039620858 0.11172561 -0.671
0.041061617 0.11172561 -0.671
0.042502377 0.11172561 -0.671
0.043943129 0.11172561 -0.671
0.045383889 0.11172561 -0.671
0.046824649 0.11172561 -0.671
0.048265409 0.11172561 -0.671
0.04955801 0.1113926 -0.66900003
0.050918251 0.1112261 -0.66800004
0.052195825 0.11089308 -0.66600001
0.053625848 0.11089308 -0.66600001
0.0549732 0.11072658 -0.66500002
0.064074032 0.11422321 -0.68600005
0.065546997 0.11422321 -0.68600005
0.06682457 0.11389019 -0.68400002
0.068093553 0.11355718 -0.68200004
-0.082851119 0.11636613 -0.708
-0.081216052 0.11620177 -0.70700002
-0.079585269 0.11603742 -0.70600003
-0.078069352 0.11603742 -0.70600003
-0.076553442 0.11603742 -0.70600003
-0.075037539 0.11603742 -0.70600003
-0.073521629 0.11603742 -0.70600003
-0.072107702 0.11620177 -0.70700002
-0.070689492 0.11636613 -0.708
0.01399318 0.11275025 -0.68600005
0.015421054 0.11242152 -0.68400002
0.016840342 0.11209281 -0.68200004
0.018251039 0.11176408 -0.68000001
0.019653149 0.11143537 -0.67800003
0.02104667 0.11110666 -0.67600006
0.022464881 0.11094229 -0.67500001
0.023843372 0.11061358 -0.67300004
0.02525085 0.11044922 -0.67200005
0.026693756 0.11044922 -0.67200005
0.028094789 0.11028485 -0.671
0.029535549 0.11028485 -0.671
0.030976305 0.11028485 -0.671
0.032417066 0.11028485 -0.671
0.033857822 0.11028485 -0.671
0.035298582 0.11028485 -0.671
0.036739338 0.11028485 -0.671
0.038180098 0.11028485 -0.671
0.039620858 0.11028485 -0.671
0.041122813 0.11044922 -0.67200005
0.042565722 0.11044922 -0.67200005
0.044008624 0.11044922 -0.67200005
0.045451529 0.11044922 -0.67200005
0.046894435 0.11044922 -0.67200005
0.048265409 0.11028485 -0.671
0.049706165 0.11028485 -0.671
0.050994474 0.10995614 -0.66900003
0.05235257 0.10979178 -0.66800004
0.05370637 0.10962743 -0.66700006
0.055055864 0.10946306 -0.66600001
0.065546997 0.11275025 -0.68600005
0.067019969 0.11275025 -0.68600005
0.068492927 0.11275025 -0.68600005
0.070169874 0.11307896 -0.68800002
-0.079585269 0.11452151 -0.70600003
-0.078069352 0.11452151 -0.70600003
-0.076661877 0.11468372 -0.70700002
-0.075143822 0.11468372 -0.70700002
0.013972782 0.11111507 -0.68500006
0.015375964 0.11062843 -0.68200004
0.016815649 0.11046622 -0.68100005
0.0182242 0.11014179 -0.67900002
0.019653149 0.10997958 -0.67800003
0.021077804 0.10981737 -0.67700005
0.022464881 0.10949294 -0.67500001
0.023843372 0.10916852 -0.67300004
0.02525085 0.10900631 -0.67200005
0.026693756 0.10900631 -0.67200005
0.028094789 0.10884409 -0.671
0.029535549 0.10884409 -0.671
0.030976305 0.10884409 -0.671
0.032417066 0.10884409 -0.671
0.033857822 0.10884409 -0.671
0.035298582 0.10884409 -0.671
0.036739338 0.10884409 -0.671
0.038180098 0.10884409 -0.671
0.039679907 0.10900631 -0.67200005
0.041184008 0.10916852 -0.67300004
0.042629063 0.10916852 -0.67300004
0.044074111 0.10916852 -0.67300004
0.045519166 0.10916852 -0.67300004
0.046894435 0.10900631 -0.67200005
0.048337344 0.10900631 -0.67200005
0.049706165 0.10884409 -0.671
0.050994474 0.10851967 -0.66900003
0.05235257 0.10835747 -0.66800004
0.053786889 0.10835747 -0.66800004
0.055138536 0.10819525 -0.66700006
0.056485891 0.10803303 -0.66600001
0.065355897 0.11095285 -0.68400002
0.06682457 0.11095285 -0.68400002
0.068293236 0.11095285 -0.68400002
0.069965899 0.11127727 -0.68600005
0.071751274 0.1117639 -0.68900001
0.013952383 0.10948417 -0.68400002
0.015375964 0.10916405 -0.68200004
0.016815649 0.10900398 -0.68100005
0.0182242 0.10868385 -0.67900002
0.019653149 0.10852379 -0.67800003
0.02104667 0.10820366 -0.67600006
0.022431599 0.10788353 -0.67400002
0.023807945 0.10756341 -0.67200005
0.025175696 0.10724327 -0.67000002
0.026654031 0.10740333 -0.671
0.028052919 0.10724327 -0.67000002
0.029535549 0.10740333 -0.671
0.030976305 0.10740333 -0.671
0.032417066 0.10740333 -0.671
0.033857822 0.10740333 -0.671
0.035298582 0.10740333 -0.671
0.036739338 0.10740333 -0.671
0.038237002 0.10756341 -0.67200005
0.039738953 0.10772347 -0.67300004
0.0412452 0.10788353 -0.67400002
0.042692404 0.10788353 -0.67400002
0.044139598 0.10788353 -0.67400002
0.045586798 0.10788353 -0.67400002
0.046894435 0.10756341 -0.67200005
0.048265409 0.10740333 -0.671
0.049632087 0.10724327 -0.67000002
0.050918251 0.10692315 -0.66800004
0.05235257 0.10692315 -0.66800004
0.05370637 0.10676308 -0.66700006
0.0549732 0.10644295 -0.66500002
0.05623145 0.10612282 -0.66300005
0.057568073 0.10596276 -0.66200006
0.065164797 0.10916405 -0.68200004
0.066726871 0.10932411 -0.68300003
0.068193391 0.10932411 -0.68300003
0.069863908 0.10964425 -0.68500006
0.071543001 0.10996437 -0.68700004
0.073124401 0.11012443 -0.68800002
0.01387079 0.10738383 -0.68000001
0.015263237 0.10691009 -0.67700005
0.016692188 0.10675217 -0.67600006
0.018170521 0.10691009 -0.67700005
0.019566188 0.10659424 -0.67500001
0.0209844 0.10643633 -0.67400002
0.022331756 0.10596257 -0.671
0.023701658 0.10564674 -0.66900003
0.025100546 0.10548883 -0.66800004
0.026574587 0.10564674 -0.66900003
0.02801105 0.10564674 -0.66900003
0.029491533 0.10580466 -0.67000002
0.030930141 0.10580466 -0.67000002
0.032417066 0.10596257 -0.671
0.033857822 0.10596257 -0.671
0.035298582 0.10596257 -0.671
0.036739338 0.10596257 -0.671
0.038237002 0.1061205 -0.67200005
0.039797999 0.10643633 -0.67400002
0.041306395 0.10659424 -0.67500001
0.042755745 0.10659424 -0.67500001
0.044139598 0.10643633 -0.67400002
0.045586798 0.10643633 -0.67400002
0.046964217 0.10627841 -0.67300004
0.048265409 0.10596257 -0.671
0.049632087 0.10580466 -0.67000002
0.050918251 0.10548883 -0.66800004
0.05235257 0.10548883 -0.66800004
0.053786889 0.10548883 -0.66800004
0.055055864 0.10517298 -0.66600001
0.056401078 0.10501507 -0.66500002
0.057828955 0.10501507 -0.66500002
0.059345938 0.10517298 -0.66600001
0.065069251 0.10754175 -0.68100005
0.066726871 0.10785758 -0.68300003
0.068293236 0.1080155 -0.68400002
0.069965899 0.10833134 -0.68600005
0.071543001 0.10848925 -0.68700004
0.073018119 0.10848925 -0.68700004
0.074384794 0.10833134 -0.68600005
0.2692973 0.090644583 -0.574
0.012428959 0.10607953 -0.68100005
0.013829994 0.10561222 -0.67800003
0.015195601 0.10498913 -0.67400002
0.016642801 0.10498913 -0.67400002
0.01809 0.10498913 -0.67400002
0.019508215 0.10483337 -0.67300004
0.020953268 0.10483337 -0.67300004
0.022331756 0.10452183 -0.671
0.023701658 0.10421029 -0.66900003
0.025138121 0.10421029 -0.66900003
0.026574587 0.10421029 -0.66900003
0.02801105 0.10421029 -0.66900003
0.029491533 0.10436606 -0.67000002
0.030930141 0.10436606 -0.67000002
0.032417066 0.10452183 -0.671
0.033857822 0.10452183 -0.671
0.035298582 0.10452183 -0.671
0.036739338 0.10452183 -0.671
0.038237002 0.1046776 -0.67200005
0.039738953 0.10483337 -0.67300004
0.041306395 0.1051449 -0.67500001
0.042692404 0.10498913 -0.67400002
0.044139598 0.10498913 -0.67400002
0.045586798 0.10498913 -0.67400002
0.046964217 0.10483337 -0.67300004
0.048337344 0.1046776 -0.67200005
0.049632087 0.10436606 -0.67000002
0.050994474 0.10421029 -0.66900003
0.05235257 0.10405452 -0.66800004
0.053786889 0.10405452 -0.66800004
0.055055864 0.10374297 -0.66600001
0.056401078 0.1035872 -0.66500002
0.057828955 0.1035872 -0.66500002
0.059345938 0.10374297 -0.66600001
0.060958471 0.10405452 -0.66800004
0.062392786 0.10405452 -0.66800004
0.064113751 0.10452183 -0.671
0.066140696 0.10545645 -0.67700005
0.067794017 0.10576799 -0.67900002
0.069557928 0.1062353 -0.68200004
0.071230583 0.10654684 -0.68400002
0.072805546 0.10670262 -0.68500006
0.074167922 0.10654684 -0.68400002
0.075526021 0.10639107 -0.68300003
0.012428959 0.10461731 -0.68100005
0.013809596 0.10400281 -0.67700005
0.015195601 0.10354193 -0.67400002
0.016642801 0.10354193 -0.67400002
0.018116841 0.10369556 -0.67500001
0.019537201 0.10354193 -0.67400002
0.020953268 0.10338832 -0.67300004
0.022365037 0.10323469 -0.67200005
0.023772515 0.10308106 -0.671
0.025175696 0.10292744 -0.67000002
0.026574587 0.10277382 -0.66900003
0.02801105 0.10277382 -0.66900003
0.029491533 0.10292744 -0.67000002
0.030930141 0.10292744 -0.67000002
0.032417066 0.10308106 -0.671
0.033857822 0.10308106 -0.671
0.035298582 0.10308106 -0.671
0.036739338 0.10308106 -0.671
0.038180098 0.10308106 -0.671
0.039679907 0.10323469 -0.67200005
0.041184008 0.10338832 -0.67300004
0.042629063 0.10338832 -0.67300004
0.044074111 0.10338832 -0.67300004
0.045519166 0.10338832 -0.67300004
0.046894435 0.10323469 -0.67200005
0.048337344 0.10323469 -0.67200005
0.049706165 0.10308106 -0.671
0.051070701 0.10292744 -0.67000002
0.052430943 0.10277382 -0.66900003
0.053786889 0.1026202 -0.66800004
0.0552212 0.1026202 -0.66800004
0.056570709 0.10246658 -0.66700006
0.058002878 0.10246658 -0.66700006
0.059435051 0.10246658 -0.66700006
0.060958471 0.1026202 -0.66800004
0.062392786 0.1026202 -0.66800004
0.063922651 0.10277382 -0.66900003
0.065554507 0.10308106 -0.671
0.067095116 0.10323469 -0.67200005
0.068742 0.10354193 -0.67400002
0.070397481 0.10384919 -0.67600006
0.071848981 0.10384919 -0.67600006
0.073625758 0.10431005 -0.67900002
0.075194277 0.10446367 -0.68000001
0.07654164 0.10431005 -0.67900002
0.0096021937 0.1042154 -0.68800002
0.010950624 0.10300358 -0.68000001
0.012355954 0.10254917 -0.67700005
0.013789198 0.10239769 -0.67600006
0.015195601 0.10209473 -0.67400002
0.016642801 0.10209473 -0.67400002
0.01809 0.10209473 -0.67400002
0.019508215 0.10194326 -0.67300004
0.020953268 0.10194326 -0.67300004
0.022365037 0.10179178 -0.67200005
0.023772515 0.10164031 -0.671
0.025175696 0.10148883 -0.67000002
0.026574587 0.10133736 -0.66900003
0.02801105 0.10133736 -0.66900003
0.029491533 0.10148883 -0.67000002
0.030883977 0.10133736 -0.66900003
0.032368753 0.10148883 -0.67000002
0.033807363 0.10148883 -0.67000002
0.035245977 0.10148883 -0.67000002
0.036684588 0.10148883 -0.67000002
0.038123198 0.10148883 -0.67000002
0.039561808 0.10148883 -0.67000002
0.041061617 0.10164031 -0.671
0.042502377 0.10164031 -0.671
0.043943129 0.10164031 -0.671
0.045383889 0.10164031 -0.671
0.046894435 0.10179178 -0.67200005
0.048337344 0.10179178 -0.67200005
0.049706165 0.10164031 -0.671
0.051070701 0.10148883 -0.67000002
0.052430943 0.10133736 -0.66900003
0.053867407 0.10133736 -0.66900003
0.055303868 0.10133736 -0.66900003
0.056655519 0.10118588 -0.66800004
0.058089837 0.10118588 -0.66800004
0.059524156 0.10118588 -0.66800004
0.060958471 0.10118588 -0.66800004
0.062392786 0.10118588 -0.66800004
0.063922651 0.10133736 -0.66900003
0.065456815 0.10148883 -0.67000002
0.066995263 0.10164031 -0.671
0.068640009 0.10194326 -0.67300004
0.070293337 0.10224621 -0.67500001
0.071742684 0.10224621 -0.67500001
0.073408902 0.10254917 -0.67700005
0.075083695 0.10285211 -0.67900002
0.07654164 0.10285211 -0.67900002
0.008160362 0.10318612 -0.69100004
0.0095603243 0.10229015 -0.68500006
0.010966728 0.10169284 -0.68100005
0.012355954 0.10109552 -0.67700005
0.013768799 0.10079686 -0.67500001
0.015173056 0.10049821 -0.67300004
0.016618108 0.10049821 -0.67300004
0.018063162 0.10049821 -0.67300004
0.019479228 0.10034888 -0.67200005
0.020922134 0.10034888 -0.67200005
0.022365037 0.10034888 -0.67200005
0.023772515 0.10019954 -0.671
0.025175696 0.10005022 -0.67000002
0.026614308 0.10005022 -0.67000002
0.02801105 0.099900894 -0.66900003
0.029491533 0.10005022 -0.67000002
0.030930141 0.10005022 -0.67000002
0.032320444 0.099900894 -0.66900003
0.033706449 0.099751562 -0.66800004
0.035193373 0.099900894 -0.66900003
0.036575083 0.099751562 -0.66800004
0.038009401 0.099751562 -0.66800004
0.039443716 0.099751562 -0.66800004
0.040939227 0.099900894 -0.66900003
0.042375695 0.099900894 -0.66900003
0.043877643 0.10005022 -0.67000002
0.045316253 0.10005022 -0.67000002
0.046894435 0.10034888 -0.67200005
0.048337344 0.10034888 -0.67200005
0.049706165 0.10019954 -0.671
0.051146924 0.10019954 -0.671
0.052509312 0.10005022 -0.67000002
0.054028444 0.10019954 -0.671
0.055386532 0.10005022 -0.67000002
0.056740332 0.099900894 -0.66900003
0.058089837 0.099751562 -0.66800004
0.059613261 0.099900894 -0.66900003
0.061049722 0.099900894 -0.66900003
0.062392786 0.099751562 -0.66800004
0.063827105 0.099751562 -0.66800004
0.065261424 0.099751562 -0.66800004
0.066995263 0.10019954 -0.671
0.068538018 0.10034888 -0.67200005
0.0701892 0.10064753 -0.67400002
0.071636401 0.10064753 -0.67400002
0.073408902 0.10109552 -0.67700005
0.075194277 0.1015435 -0.68000001
0.07654164 0.10139418 -0.67900002
0.0082075996 0.10229114 -0.69500005
0.012337703 0.099494703 -0.67600006
0.013748401 0.099200331 -0.67400002
0.015173056 0.099053152 -0.67300004
0.016593417 0.098905973 -0.67200005
0.018036323 0.098905973 -0.67200005
0.019479228 0.098905973 -0.67200005
0.020922134 0.098905973 -0.67200005
0.022365037 0.098905973 -0.67200005
0.023772515 0.098758787 -0.671
0.025213271 0.098758787 -0.671
0.026614308 0.098611608 -0.67000002
0.028052919 0.098611608 -0.67000002
0.029491533 0.098611608 -0.67000002
0.030883977 0.098464422 -0.66900003
0.032272134 0.098317243 -0.66800004
0.03365599 0.098170064 -0.66700006
0.035088163 0.098170064 -0.66700006
0.036520328 0.098170064 -0.66700006
0.037895598 0.098022878 -0.66600001
0.039384671 0.098170064 -0.66700006
0.040755644 0.098022878 -0.66600001
0.042249013 0.098170064 -0.66700006
0.043746665 0.098317243 -0.66800004
0.04524862 0.098464422 -0.66900003
0.046824649 0.098758787 -0.671
0.048265409 0.098758787 -0.671
0.049706165 0.098758787 -0.671
0.051146924 0.098758787 -0.671
0.052587684 0.098758787 -0.671
0.054028444 0.098758787 -0.671
0.055386532 0.098611608 -0.67000002
0.056740332 0.098464422 -0.66900003
0.058089837 0.098317243 -0.66800004
0.059524156 0.098317243 -0.66800004
0.060958471 0.098317243 -0.66800004
0.062205981 0.098022878 -0.66600001
0.063540459 0.097875699 -0.66500002
0.064968333 0.097875699 -0.66500002
0.06679558 0.098464422 -0.66900003
0.068538018 0.098905973 -0.67200005
0.0701892 0.099200331 -0.67400002
0.071636401 0.099200331 -0.67400002
0.073408902 0.099641882 -0.67700005
0.075083695 0.099936239 -0.67900002
0.076428913 0.099789061 -0.67800003
0.078114443 0.10008342 -0.68000001
0.079925589 0.10052497 -0.68300003
0.0081839804 0.10050878 -0.69300002
0.012319451 0.097898163 -0.67500001
0.013748401 0.09775313 -0.67400002
0.015173056 0.097608097 -0.67300004
0.016593417 0.097463064 -0.67200005
0.018036323 0.097463064 -0.67200005
0.01945024 0.097318023 -0.671
0.020890998 0.097318023 -0.671
0.022331756 0.097318023 -0.671
0.023772515 0.097318023 -0.671
0.025213271 0.097318023 -0.671
0.026614308 0.09717299 -0.67000002
0.02801105 0.097027957 -0.66900003
0.029447515 0.097027957 -0.66900003
0.030837813 0.096882924 -0.66800004
0.032175507 0.096592851 -0.66600001
0.033504613 0.096302792 -0.66400003
0.034982946 0.096447818 -0.66500002
0.036410823 0.096447818 -0.66500002
0.037838697 0.096447818 -0.66500002
0.039266571 0.096447818 -0.66500002
0.040694449 0.096447818 -0.66500002
0.042122327 0.096447818 -0.66500002
0.043746665 0.096882924 -0.66800004
0.04524862 0.097027957 -0.66900003
0.046824649 0.097318023 -0.671
0.048265409 0.097318023 -0.671
0.049706165 0.097318023 -0.671
0.051223151 0.097463064 -0.67200005
0.052587684 0.097318023 -0.671
0.054028444 0.097318023 -0.671
0.055469196 0.097318023 -0.671
0.056740332 0.097027957 -0.66900003
0.058089837 0.096882924 -0.66800004
0.059524156 0.096882924 -0.66800004
0.060958471 0.096882924 -0.66800004
0.062299386 0.096737891 -0.66700006
0.063636005 0.096592851 -0.66600001
0.064968333 0.096447818 -0.66500002
0.0701892 0.09775313 -0.67400002
0.071636401 0.09775313 -0.67400002
0.073408902 0.098188236 -0.67700005
0.075194277 0.098623335 -0.68000001
0.076767094 0.098768376 -0.68100005
0.078344196 0.098913409 -0.68200004
0.080276661 0.099493548 -0.68600005
0.0081839804 0.099020787 -0.69300002
0.012337703 0.096591711 -0.67600006
0.013748401 0.096305929 -0.67400002
0.015173056 0.096163042 -0.67300004
0.016593417 0.096020162 -0.67200005
0.018036323 0.096020162 -0.67200005
0.01945024 0.095877267 -0.671
0.020890998 0.095877267 -0.671
0.022331756 0.095877267 -0.671
0.023772515 0.095877267 -0.671
0.025175696 0.09573438 -0.67000002
0.026614308 0.09573438 -0.67000002
0.028052919 0.09573438 -0.67000002
0.029447515 0.095591493 -0.66900003
0.030837813 0.095448606 -0.66800004
0.032175507 0.095162831 -0.66600001
0.033504613 0.094877057 -0.66400003
0.034930341 0.094877057 -0.66400003
0.036356069 0.094877057 -0.66400003
0.037724901 0.094734177 -0.66300005
0.03914848 0.094734177 -0.66300005
0.040572062 0.094734177 -0.66300005
0.042122327 0.095019944 -0.66500002
0.043615684 0.095162831 -0.66600001
0.045113347 0.095305726 -0.66700006
0.046824649 0.095877267 -0.671
0.048265409 0.095877267 -0.671
0.049706165 0.095877267 -0.671
0.051146924 0.095877267 -0.671
0.052509312 0.09573438 -0.67000002
0.053947926 0.09573438 -0.67000002
0.055386532 0.09573438 -0.67000002
0.056655519 0.095448606 -0.66800004
0.058002878 0.095305726 -0.66700006
0.059435051 0.095305726 -0.66700006
0.060867216 0.095305726 -0.66700006
0.062205981 0.095162831 -0.66600001
0.063636005 0.095162831 -0.66600001
0.065066025 0.095162831 -0.66600001
0.068640009 0.096163042 -0.67300004
0.0701892 0.096305929 -0.67400002
0.071742684 0.096448816 -0.67500001
0.07351733 0.096877478 -0.67800003
0.075194277 0.097163253 -0.68000001
0.076992542 0.097591914 -0.68300003
0.078688823 0.097877696 -0.68500006
0.080393679 0.098163463 -0.68700004
0.0081721712 0.097392045 -0.69200003
0.012337703 0.095140211 -0.67600006
0.013748401 0.094858728 -0.67400002
0.015173056 0.094717987 -0.67300004
0.016593417 0.094577253 -0.67200005
0.018036323 0.094577253 -0.67200005
0.01945024 0.094436504 -0.671
0.020890998 0.094436504 -0.671
0.022331756 0.094436504 -0.671
0.023737086 0.09429577 -0.67000002
0.025175696 0.09429577 -0.67000002
0.026574587 0.094155028 -0.66900003
0.02796918 0.094014294 -0.66800004
0.029403498 0.094014294 -0.66800004
0.030745484 0.093732804 -0.66600001
0.032127198 0.09359207 -0.66500002
0.033454154 0.093310595 -0.66300005
0.034877736 0.093310595 -0.66300005
0.036301319 0.093310595 -0.66300005
0.037668001 0.093169853 -0.66200006
0.039089434 0.093169853 -0.66200006
0.040572062 0.093310595 -0.66300005
0.042058986 0.093451329 -0.66400003
0.043550197 0.09359207 -0.66500002
0.045045711 0.093732804 -0.66600001
0.046754867 0.09429577 -0.67000002
0.048265409 0.094436504 -0.671
0.049706165 0.094436504 -0.671
0.051146924 0.094436504 -0.671
0.052509312 0.09429577 -0.67000002
0.053867407 0.094155028 -0.66900003
0.055303868 0.094155028 -0.66900003
0.056655519 0.094014294 -0.66800004
0.057915915 0.093732804 -0.66600001
0.059435051 0.093873553 -0.66700006
0.060775954 0.093732804 -0.66600001
0.062112577 0.09359207 -0.66500002
0.063731559 0.093873553 -0.66700006
0.068742 0.094858728 -0.67400002
0.0701892 0.094858728 -0.67400002
0.071636401 0.094858728 -0.67400002
0.073408902 0.095280953 -0.67700005
0.075194277 0.095703162 -0.68000001
0.077105269 0.096266128 -0.68400002
0.079033442 0.096829087 -0.68800002
0.080744743 0.097110569 -0.69000006
0.008160362 0.095767617 -0.69100004
0.012301201 0.093411535 -0.67400002
0.013707605 0.093134359 -0.67200005
0.015150511 0.093134359 -0.67200005
0.016568722 0.092995755 -0.671
0.018009482 0.092995755 -0.671
0.01945024 0.092995755 -0.671
0.020859864 0.092857167 -0.67000002
0.022331756 0.092995755 -0.671
0.023737086 0.092857167 -0.67000002
0.025175696 0.092857167 -0.67000002
0.026574587 0.092718571 -0.66900003
0.02801105 0.092718571 -0.66900003
0.029403498 0.092579983 -0.66800004
0.030837813 0.092579983 -0.66800004
0.032175507 0.092302792 -0.66600001
0.033504613 0.092025608 -0.66400003
0.034877736 0.09188702 -0.66300005
0.036301319 0.09188702 -0.66300005
0.037668001 0.091748431 -0.66200006
0.039089434 0.091748431 -0.66200006
0.040510867 0.091748431 -0.66200006
0.041995645 0.09188702 -0.66300005
0.043550197 0.092164204 -0.66500002
0.044978075 0.092164204 -0.66500002
0.04654552 0.092441395 -0.66700006
0.048121549 0.092718571 -0.66900003
0.04955801 0.092718571 -0.66900003
0.050918251 0.092579983 -0.66800004
0.052274197 0.092441395 -0.66700006
0.05370637 0.092441395 -0.66700006
0.055055864 0.092302792 -0.66600001
0.056401078 0.092164204 -0.66500002
0.057741992 0.092025608 -0.66400003
0.059167724 0.092025608 -0.66400003
0.060502194 0.09188702 -0.66300005
0.061925776 0.09188702 -0.66300005
0.063444905 0.092025608 -0.66400003
0.065163732 0.092441395 -0.66700006
0.067095116 0.093134359 -0.67200005
0.069251955 0.094104499 -0.67900002
0.070814028 0.094243094 -0.68000001
0.072167829 0.094104499 -0.67900002
0.073734194 0.094243094 -0.68000001
0.075526021 0.094658874 -0.68300003
0.077330731 0.095074654 -0.68600005
0.079378068 0.095767617 -0.69100004
0.0081485528 0.094147466 -0.69000006
0.012319451 0.092100777 -0.67500001
0.013687206 0.091554999 -0.671
0.015127964 0.091554999 -0.671
0.016568722 0.091554999 -0.671
0.017982641 0.091418549 -0.67000002
0.019421253 0.091418549 -0.67000002
0.020859864 0.091418549 -0.67000002
0.022298474 0.091418549 -0.67000002
0.023737086 0.091418549 -0.67000002
0.025138121 0.091282107 -0.66900003
0.026574587 0.091282107 -0.66900003
0.02801105 0.091282107 -0.66900003
0.029403498 0.091145664 -0.66800004
0.030837813 0.091145664 -0.66800004
0.032223821 0.091009222 -0.66700006
0.033555072 0.090736322 -0.66500002
0.034982946 0.090736322 -0.66500002
0.036356069 0.09059988 -0.66400003
0.037724901 0.090463437 -0.66300005
0.03914848 0.090463437 -0.66300005
0.040633254 0.09059988 -0.66400003
0.041995645 0.090463437 -0.66300005
0.04348471 0.09059988 -0.66400003
0.044910438 0.09059988 -0.66400003
0.046336167 0.09059988 -0.66400003
0.047905758 0.090872772 -0.66600001
0.049335774 0.090872772 -0.66600001
0.050689574 0.090736322 -0.66500002
0.052117452 0.090736322 -0.66500002
0.05354533 0.090736322 -0.66500002
0.0549732 0.090736322 -0.66500002
0.05623145 0.090463437 -0.66300005
0.057568073 0.090326995 -0.66200006
0.059078615 0.090463437 -0.66300005
0.060502194 0.090463437 -0.66300005
0.061925776 0.090463437 -0.66300005
0.063540459 0.090736322 -0.66500002
0.065261424 0.091145664 -0.66800004
0.067194954 0.091827892 -0.67300004
0.069353946 0.092783004 -0.68000001
0.071022309 0.093055904 -0.68200004
0.073951066 0.093055904 -0.68200004
0.075747184 0.093465239 -0.68500006
0.077443451 0.093738131 -0.68700004
0.13045092 0.08009357 -0.58700001
0.1317113 0.08009357 -0.58700001
0.13297169 0.08009357 -0.58700001
0.13482903 0.073544182 -0.53900003
0.0081131235 0.092263013 -0.68700004
0.0095044971 0.091457225 -0.68100005
0.010918416 0.091054328 -0.67800003
0.012301201 0.090517133 -0.67400002
0.013707605 0.09024854 -0.67200005
0.015127964 0.090114236 -0.671
0.016568722 0.090114236 -0.671
0.017982641 0.089979939 -0.67000002
0.019392267 0.089845642 -0.66900003
0.020828731 0.089845642 -0.66900003
0.022298474 0.089979939 -0.67000002
0.023701658 0.089845642 -0.66900003
0.025138121 0.089845642 -0.66900003
0.026574587 0.089845642 -0.66900003
0.02796918 0.089711346 -0.66800004
0.029403498 0.089711346 -0.66800004
0.030837813 0.089711346 -0.66800004
0.032223821 0.089577049 -0.66700006
0.033605531 0.089442745 -0.66600001
0.034982946 0.089308448 -0.66500002
0.036356069 0.089174151 -0.66400003
0.037724901 0.089039855 -0.66300005
0.039089434 0.088905558 -0.66200006
0.040572062 0.089039855 -0.66300005
0.041995645 0.089039855 -0.66300005
0.04341922 0.089039855 -0.66300005
0.044842802 0.089039855 -0.66300005
0.046266384 0.089039855 -0.66300005
0.047761898 0.089174151 -0.66400003
0.049187623 0.089174151 -0.66400003
0.050613351 0.089174151 -0.66400003
0.052039079 0.089174151 -0.66400003
0.053384293 0.089039855 -0.66300005
0.054807868 0.089039855 -0.66300005
0.05614664 0.088905558 -0.66200006
0.057568073 0.088905558 -0.66200006
0.05898951 0.088905558 -0.66200006
0.060502194 0.089039855 -0.66300005
0.062019177 0.089174151 -0.66400003
0.063731559 0.089577049 -0.66700006
0.065456815 0.089979939 -0.67000002
0.067194954 0.090382837 -0.67300004
0.069149964 0.091054328 -0.67800003
0.070918173 0.091457225 -0.68100005
0.072380401 0.091457225 -0.68100005
0.074059494 0.091725819 -0.68300003
0.075747184 0.09199442 -0.68500006
0.077330731 0.092128716 -0.68600005
0.18418626 0.092531607 -0.68900001
0.18512672 0.092263013 -0.68700004
0.18633023 0.092128716 -0.68600005
0.18780319 0.092128716 -0.68600005
0.18927617 0.092128716 -0.68600005
0.18991494 0.091725819 -0.68300003
0.0080895051 0.090523601 -0.68500006
0.0095044971 0.089994997 -0.68100005
0.010918416 0.089598536 -0.67800003
0.012319451 0.089202084 -0.67500001
0.013728003 0.088937782 -0.67300004
0.015150511 0.088805631 -0.67200005
0.016568722 0.08867348 -0.671
0.018009482 0.08867348 -0.671
0.019421253 0.088541329 -0.67000002
0.020828731 0.088409178 -0.66900003
0.022265194 0.088409178 -0.66900003
0.023666231 0.088277027 -0.66800004
0.025100546 0.088277027 -0.66800004
0.026534865 0.088277027 -0.66800004
0.02796918 0.088277027 -0.66800004
0.029403498 0.088277027 -0.66800004
0.030837813 0.088277027 -0.66800004
0.032272134 0.088277027 -0.66800004
0.03365599 0.088144876 -0.66700006
0.035088163 0.088144876 -0.66700006
0.036465574 0.088012718 -0.66600001
0.037781797 0.087748423 -0.66400003
0.039207526 0.087748423 -0.66400003
0.040633254 0.087748423 -0.66400003
0.042058986 0.087748423 -0.66400003
0.04348471 0.087748423 -0.66400003
0.044842802 0.087616272 -0.66300005
0.046196602 0.087484121 -0.66200006
0.047689967 0.087616272 -0.66300005
0.049113546 0.087616272 -0.66300005
0.050537128 0.087616272 -0.66300005
0.05196071 0.087616272 -0.66300005
0.053384293 0.087616272 -0.66300005
0.054890536 0.087748423 -0.66400003
0.05623145 0.087616272 -0.66300005
0.057655033 0.087616272 -0.66300005
0.059078615 0.087616272 -0.66300005
0.060593449 0.087748423 -0.66400003
0.062112577 0.087880574 -0.66500002
0.063731559 0.088144876 -0.66700006
0.065456815 0.088541329 -0.67000002
0.067194954 0.088937782 -0.67300004
0.069047973 0.089466393 -0.67700005
0.070918173 0.089994997 -0.68100005
0.072380401 0.089994997 -0.68100005
0.073951066 0.090127148 -0.68200004
0.075526021 0.090259291 -0.68300003
0.076992542 0.090259291 -0.68300003
0.078803696 0.090655752 -0.68600005
0.18714508 0.091052197 -0.68900001
0.18835071 0.090920053 -0.68800002
0.18982799 0.090920053 -0.68800002
0.19102718 0.090787902 -0.68700004
0.1922221 0.090655752 -0.68600005
0.19369505 0.090655752 -0.68600005
0.008077695 0.088922769 -0.68400002
0.0094905403 0.088402756 -0.68000001
0.010918416 0.088142753 -0.67800003
0.012319451 0.087752737 -0.67500001
0.013748401 0.087622732 -0.67400002
0.015173056 0.087492727 -0.67300004
0.016593417 0.087362729 -0.67200005
0.018009482 0.087232716 -0.671
0.019421253 0.087102711 -0.67000002
0.020828731 0.086972713 -0.66900003
0.022265194 0.086972713 -0.66900003
0.023666231 0.086842708 -0.66800004
0.025100546 0.086842708 -0.66800004
0.026534865 0.086842708 -0.66800004
0.02796918 0.086842708 -0.66800004
0.029403498 0.086842708 -0.66800004
0.030837813 0.086842708 -0.66800004
0.032272134 0.086842708 -0.66800004
0.033706449 0.086842708 -0.66800004
0.035140768 0.086842708 -0.66800004
0.036465574 0.086582698 -0.66600001
0.037838697 0.086452693 -0.66500002
0.039207526 0.086322695 -0.66400003
0.040572062 0.08619269 -0.66300005
0.041995645 0.08619269 -0.66300005
0.043353733 0.086062685 -0.66200006
0.044775169 0.086062685 -0.66200006
0.046126816 0.085932679 -0.66100001
0.047618039 0.086062685 -0.66200006
0.049039468 0.086062685 -0.66200006
0.050537128 0.08619269 -0.66300005
0.05196071 0.08619269 -0.66300005
0.053464811 0.086322695 -0.66400003
0.054890536 0.086322695 -0.66400003
0.05623145 0.08619269 -0.66300005
0.057655033 0.08619269 -0.66300005
0.059078615 0.08619269 -0.66300005
0.060593449 0.086322695 -0.66400003
0.062112577 0.086452693 -0.66500002
0.063827105 0.086842708 -0.66800004
0.065554507 0.087232716 -0.671
0.067294799 0.087622732 -0.67400002
0.068945989 0.087882742 -0.67600006
0.070709892 0.08827275 -0.67900002
0.072380401 0.088532761 -0.68100005
0.073951066 0.088662766 -0.68200004
0.075526021 0.088792771 -0.68300003
0.076992542 0.088792771 -0.68300003
0.078803696 0.089182787 -0.68600005
0.11461652 0.088402756 -0.68000001
0.11590591 0.08827275 -0.67900002
0.11753669 0.088402756 -0.68000001
0.1925023 0.089312784 -0.68700004
0.19369505 0.089182787 -0.68600005
0.19488354 0.089052781 -0.68500006
0.19635434 0.089052781 -0.68500006
0.19666998 0.088532761 -0.68100005
0.19709191 0.085542671 -0.65800005
0.0080658859 0.087326244 -0.68300003
0.0094905403 0.086942673 -0.68000001
0.010918416 0.086686961 -0.67800003
0.012337703 0.08643125 -0.67600006
0.013748401 0.086175531 -0.67400002
0.015195601 0.086175531 -0.67400002
0.016593417 0.08591982 -0.67200005
0.018009482 0.08579196 -0.671
0.01945024 0.08579196 -0.671
0.020859864 0.085664101 -0.67000002
0.022298474 0.085664101 -0.67000002
0.023701658 0.085536249 -0.66900003
0.025100546 0.08540839 -0.66800004
0.026534865 0.08540839 -0.66800004
0.02796918 0.08540839 -0.66800004
0.029403498 0.08540839 -0.66800004
0.030837813 0.08540839 -0.66800004
0.032223821 0.085280538 -0.66700006
0.03365599 0.085280538 -0.66700006
0.035088163 0.085280538 -0.66700006
0.036465574 0.085152671 -0.66600001
0.037781797 0.084896967 -0.66400003
0.039207526 0.084896967 -0.66400003
0.040572062 0.084769107 -0.66300005
0.041932303 0.084641255 -0.66200006
0.043353733 0.084641255 -0.66200006
0.044775169 0.084641255 -0.66200006
0.046126816 0.084513389 -0.66100001
0.047618039 0.084641255 -0.66200006
0.049039468 0.084641255 -0.66200006
0.050537128 0.084769107 -0.66300005
0.05196071 0.084769107 -0.66300005
0.053384293 0.084769107 -0.66300005
0.054890536 0.084896967 -0.66400003
0.05623145 0.084769107 -0.66300005
0.057655033 0.084769107 -0.66300005
0.059167724 0.084896967 -0.66400003
0.060684703 0.085024819 -0.66500002
0.062205981 0.085152671 -0.66600001
0.063922651 0.085536249 -0.66900003
0.065554507 0.08579196 -0.671
0.067194954 0.086047672 -0.67300004
0.068742 0.086175531 -0.67400002
0.070501618 0.086559102 -0.67700005
0.072061546 0.086686961 -0.67800003
0.073734194 0.086942673 -0.68000001
0.075304866 0.087070532 -0.68100005
0.076767094 0.087070532 -0.68100005
0.078344196 0.087198384 -0.68200004
0.11315644 0.086942673 -0.68000001
0.11427942 0.086686961 -0.67800003
0.11573521 0.086686961 -0.67800003
0.11753669 0.086942673 -0.68000001
0.19369505 0.087709814 -0.68600005
0.19459903 0.087454095 -0.68400002
0.19578104 0.087326244 -0.68300003
0.19638117 0.086942673 -0.68000001
0.19696844 0.086559102 -0.67700005
0.1975428 0.086175531 -0.67400002
0.19810429 0.08579196 -0.671
0.19835551 0.085280538 -0.66700006
0.19858956 0.084769107 -0.66300005
0.19940977 0.084513389 -0.66100001
0.2002214 0.084257677 -0.65900004
0.0080658859 0.085859716 -0.68300003
0.0094905403 0.085482582 -0.68000001
0.010918416 0.08523117 -0.67800003
0.012337703 0.08497975 -0.67600006
0.013768799 0.084854037 -0.67500001
0.015195601 0.08472833 -0.67400002
0.016618108 0.084602624 -0.67300004
0.018036323 0.084476911 -0.67200005
0.01945024 0.084351197 -0.671
0.020859864 0.084225491 -0.67000002
0.022298474 0.084225491 -0.67000002
0.023701658 0.084099784 -0.66900003
0.025100546 0.083974071 -0.66800004
0.026534865 0.083974071 -0.66800004
0.02796918 0.083974071 -0.66800004
0.029403498 0.083974071 -0.66800004
0.030837813 0.083974071 -0.66800004
0.032223821 0.083848365 -0.66700006
0.03365599 0.083848365 -0.66700006
0.035088163 0.083848365 -0.66700006
0.036465574 0.083722651 -0.66600001
0.037838697 0.083596945 -0.66500002
0.039207526 0.083471231 -0.66400003
0.040572062 0.083345525 -0.66300005
0.041932303 0.083219819 -0.66200006
0.043353733 0.083219819 -0.66200006
0.044775169 0.083219819 -0.66200006
0.046196602 0.083219819 -0.66200006
0.047689967 0.083345525 -0.66300005
0.049039468 0.083219819 -0.66200006
0.050537128 0.083345525 -0.66300005
0.05196071 0.083345525 -0.66300005
0.053384293 0.083345525 -0.66300005
0.054890536 0.083471231 -0.66400003
0.056316264 0.083471231 -0.66400003
0.057655033 0.083345525 -0.66300005
0.059167724 0.083471231 -0.66400003
0.060775954 0.083722651 -0.66600001
0.062299386 0.083848365 -0.66700006
0.064018205 0.084225491 -0.67000002
0.065652214 0.084476911 -0.67200005
0.067294799 0.08472833 -0.67400002
0.068843991 0.084854037 -0.67500001
0.070501618 0.085105464 -0.67700005
0.072061546 0.08523117 -0.67800003
0.073625758 0.085356876 -0.67900002
0.075304866 0.085608304 -0.68100005
0.07665436 0.085482582 -0.68000001
0.078114443 0.085482582 -0.68000001
0.11315644 0.085482582 -0.68000001
0.11427942 0.08523117 -0.67800003
0.11573521 0.08523117 -0.67800003
0.11770955 0.085608304 -0.68100005
0.19341271 0.086111143 -0.68500006
0.19459903 0.085985422 -0.68400002
0.19520776 0.085608304 -0.68100005
0.19580358 0.08523117 -0.67800003
0.19667751 0.08497975 -0.67600006
0.19783588 0.084854037 -0.67500001
0.19899 0.08472833 -0.67400002
0.19984244 0.084476911 -0.67200005
0.20068628 0.084225491 -0.67000002
0.20152153 0.083974071 -0.66800004
0.20143671 0.083345525 -0.66300005
0.20224835 0.083094105 -0.66100001
0.20397577 0.083219819 -0.66200006
0.0094765835 0.083898947 -0.67900002
0.010918416 0.083775386 -0.67800003
0.012337703 0.083528265 -0.67600006
0.013768799 0.083404697 -0.67500001
0.015195601 0.08328113 -0.67400002
0.016618108 0.083157569 -0.67300004
0.018036323 0.083034009 -0.67200005
0.019421253 0.08278688 -0.67000002
0.020828731 0.08266332 -0.66900003
0.022265194 0.08266332 -0.66900003
0.023666231 0.08253976 -0.66800004
0.025100546 0.08253976 -0.66800004
0.026534865 0.08253976 -0.66800004
0.02796918 0.08253976 -0.66800004
0.029403498 0.08253976 -0.66800004
0.030837813 0.08253976 -0.66800004
0.032223821 0.082416199 -0.66700006
0.033706449 0.08253976 -0.66800004
0.035140768 0.08253976 -0.66800004
0.036520328 0.082416199 -0.66700006
0.037895598 0.082292631 -0.66600001
0.039266571 0.082169071 -0.66500002
0.040633254 0.08204551 -0.66400003
0.041995645 0.08192195 -0.66300005
0.04341922 0.08192195 -0.66300005
0.044842802 0.08192195 -0.66300005
0.046266384 0.08192195 -0.66300005
0.047689967 0.08192195 -0.66300005
0.049113546 0.08192195 -0.66300005
0.050537128 0.08192195 -0.66300005
0.052039079 0.08204551 -0.66400003
0.053464811 0.08204551 -0.66400003
0.054890536 0.08204551 -0.66400003
0.056316264 0.08204551 -0.66400003
0.057741992 0.08204551 -0.66400003
0.059256829 0.082169071 -0.66500002
0.060867216 0.082416199 -0.66700006
0.06248619 0.08266332 -0.66900003
0.064113751 0.082910441 -0.671
0.065749906 0.083157569 -0.67300004
0.067294799 0.08328113 -0.67400002
0.068945989 0.083528265 -0.67600006
0.070501618 0.083651826 -0.67700005
0.072061546 0.083775386 -0.67800003
0.07351733 0.083775386 -0.67800003
0.075194277 0.084022507 -0.68000001
0.076767094 0.084146075 -0.68100005
0.078114443 0.084022507 -0.68000001
0.11315644 0.084022507 -0.68000001
0.11461652 0.084022507 -0.68000001
0.11624732 0.084146075 -0.68100005
0.19431452 0.084393196 -0.68300003
0.19520776 0.084146075 -0.68100005
0.19580358 0.083775386 -0.67800003
0.19667751 0.083528265 -0.67600006
0.19783588 0.083404697 -0.67500001
0.19899 0.08328113 -0.67400002
0.20013982 0.083157569 -0.67300004
0.2009858 0.082910441 -0.671
0.2018232 0.08266332 -0.66900003
0.20204435 0.082169071 -0.66500002
0.20255433 0.08179839 -0.66200006
0.20335951 0.081551261 -0.66000003
0.20477666 0.081551261 -0.66000003
0.0094905403 0.082562424 -0.68000001
0.010918416 0.082319595 -0.67800003
0.012355954 0.08219818 -0.67700005
0.013789198 0.082076766 -0.67600006
0.015195601 0.081833929 -0.67400002
0.016618108 0.081712522 -0.67300004
0.018036323 0.081591107 -0.67200005
0.01945024 0.081469685 -0.671
0.020859864 0.08134827 -0.67000002
0.022265194 0.081226856 -0.66900003
0.023666231 0.081105441 -0.66800004
0.025100546 0.081105441 -0.66800004
0.026534865 0.081105441 -0.66800004
0.02796918 0.081105441 -0.66800004
0.029403498 0.081105441 -0.66800004
0.03079165 0.080984026 -0.66700006
0.032223821 0.080984026 -0.66700006
0.03365599 0.080984026 -0.66700006
0.035088163 0.080984026 -0.66700006
0.036465574 0.080862604 -0.66600001
0.037838697 0.080741197 -0.66500002
0.039266571 0.080741197 -0.66500002
0.040633254 0.080619782 -0.66400003
0.041995645 0.080498368 -0.66300005
0.04341922 0.080498368 -0.66300005
0.044842802 0.080498368 -0.66300005
0.046266384 0.080498368 -0.66300005
0.047689967 0.080498368 -0.66300005
0.049113546 0.080498368 -0.66300005
0.050613351 0.080619782 -0.66400003
0.052039079 0.080619782 -0.66400003
0.053464811 0.080619782 -0.66400003
0.054890536 0.080619782 -0.66400003
0.056316264 0.080619782 -0.66400003
0.057741992 0.080619782 -0.66400003
0.059345938 0.080862604 -0.66600001
0.060958471 0.081105441 -0.66800004
0.06248619 0.081226856 -0.66900003
0.064113751 0.081469685 -0.671
0.065749906 0.081712522 -0.67300004
0.067294799 0.081833929 -0.67400002
0.068843991 0.081955343 -0.67500001
0.070501618 0.08219818 -0.67700005
0.072061546 0.082319595 -0.67800003
0.07351733 0.082319595 -0.67800003
0.075194277 0.082562424 -0.68000001
0.07665436 0.082562424 -0.68000001
0.078229323 0.082683839 -0.68100005
0.11315644 0.082562424 -0.68000001
0.11461652 0.082562424 -0.68000001
0.11624732 0.082683839 -0.68100005
0.19520776 0.082683839 -0.68100005
0.19580358 0.082319595 -0.67800003
0.19667751 0.082076766 -0.67600006
0.19783588 0.081955343 -0.67500001
0.19899 0.081833929 -0.67400002
0.20013982 0.081712522 -0.67300004
0.2009858 0.081469685 -0.671
0.20242657 0.081469685 -0.671
0.20295584 0.081105441 -0.66800004
0.20316628 0.080619782 -0.66400003
0.20397577 0.080376953 -0.66200006
0.01093452 0.080983073 -0.67900002
0.012355954 0.080744535 -0.67700005
0.013789198 0.080625273 -0.67600006
0.015195601 0.080386728 -0.67400002
0.016618108 0.080267467 -0.67300004
0.018063162 0.080267467 -0.67300004
0.01945024 0.080028921 -0.671
0.020859864 0.07990966 -0.67000002
0.022265194 0.079790391 -0.66900003
0.023666231 0.079671122 -0.66800004
0.025100546 0.079671122 -0.66800004
0.026534865 0.079671122 -0.66800004
0.02796918 0.079671122 -0.66800004
0.029359482 0.079551861 -0.66700006
0.03079165 0.079551861 -0.66700006
0.032223821 0.079551861 -0.66700006
0.03365599 0.079551861 -0.66700006
0.035088163 0.079551861 -0.66700006
0.036465574 0.079432584 -0.66600001
0.037895598 0.079432584 -0.66600001
0.039266571 0.079313315 -0.66500002
0.040633254 0.079194047 -0.66400003
0.042058986 0.079194047 -0.66400003
0.04341922 0.079074785 -0.66300005
0.044842802 0.079074785 -0.66300005
0.046266384 0.079074785 -0.66300005
0.047689967 0.079074785 -0.66300005
0.049039468 0.078955516 -0.66200006
0.050537128 0.079074785 -0.66300005
0.05196071 0.079074785 -0.66300005
0.053384293 0.079074785 -0.66300005
0.054807868 0.079074785 -0.66300005
0.05623145 0.079074785 -0.66300005
0.057655033 0.079074785 -0.66300005
0.059345938 0.079432584 -0.66600001
0.060958471 0.079671122 -0.66800004
0.062672988 0.080028921 -0.671
0.064304851 0.080267467 -0.67300004
0.065847605 0.080386728 -0.67400002
0.067294799 0.080386728 -0.67400002
0.068945989 0.080625273 -0.67600006
0.070501618 0.080744535 -0.67700005
0.072061546 0.080863804 -0.67800003
0.07351733 0.080863804 -0.67800003
0.075083695 0.080983073 -0.67900002
0.1115321 0.080983073 -0.67900002
0.11315644 0.081102334 -0.68000001
0.11444797 0.080983073 -0.67900002
0.11607661 0.081102334 -0.68000001
0.19520776 0.08122161 -0.68100005
0.19580358 0.080863804 -0.67800003
0.19667751 0.080625273 -0.67600006
0.19783588 0.080505997 -0.67500001
0.19899 0.080386728 -0.67400002
0.20013982 0.080267467 -0.67300004
0.20128536 0.080148198 -0.67200005
0.20242657 0.080028921 -0.671
0.20325966 0.079790391 -0.66900003
0.2040842 0.079551861 -0.66700006
0.20459199 0.079194047 -0.66400003
0.012355954 0.079290897 -0.67700005
0.013789198 0.079173781 -0.67600006
0.015195601 0.078939535 -0.67400002
0.016618108 0.078822412 -0.67300004
0.018036323 0.078705296 -0.67200005
0.01945024 0.078588165 -0.671
0.020859864 0.07847105 -0.67000002
0.022265194 0.078353927 -0.66900003
0.023666231 0.078236811 -0.66800004
0.025100546 0.078236811 -0.66800004
0.026534865 0.078236811 -0.66800004
0.02796918 0.078236811 -0.66800004
0.029359482 0.078119688 -0.66700006
0.03079165 0.078119688 -0.66700006
0.032223821 0.078119688 -0.66700006
0.03365599 0.078119688 -0.66700006
0.035088163 0.078119688 -0.66700006
0.036520328 0.078119688 -0.66700006
0.037895598 0.078002565 -0.66600001
0.039266571 0.077885441 -0.66500002
0.040694449 0.077885441 -0.66500002
0.042058986 0.077768326 -0.66400003
0.04348471 0.077768326 -0.66400003
0.044842802 0.077651203 -0.66300005
0.046336167 0.077768326 -0.66400003
0.047689967 0.077651203 -0.66300005
0.049113546 0.077651203 -0.66300005
0.050537128 0.077651203 -0.66300005
0.05196071 0.077651203 -0.66300005
0.053384293 0.077651203 -0.66300005
0.054725204 0.077534087 -0.66200006
0.05614664 0.077534087 -0.66200006
0.057655033 0.077651203 -0.66300005
0.059345938 0.078002565 -0.66600001
0.061049722 0.078353927 -0.66900003
0.062672988 0.078588165 -0.671
0.064304851 0.078822412 -0.67300004
0.065847605 0.078939535 -0.67400002
0.067394644 0.07905665 -0.67500001
0.068945989 0.079173781 -0.67600006
0.070501618 0.079290897 -0.67700005
0.072061546 0.07940802 -0.67800003
0.11427942 0.07940802 -0.67800003
0.19580358 0.07940802 -0.67800003
0.19667751 0.079173781 -0.67600006
0.1975428 0.078939535 -0.67400002
0.19899 0.078939535 -0.67400002
0.20013982 0.078822412 -0.67300004
0.2009858 0.078588165 -0.671
0.20242657 0.078588165 -0.671
0.20325966 0.078353927 -0.66900003
0.2040842 0.078119688 -0.66700006
0.20459199 0.077768326 -0.66400003
0.21054719 0.075308785 -0.64300001
0.015218146 0.077607304 -0.67500001
0.016642801 0.077492334 -0.67400002
0.018063162 0.077377364 -0.67300004
0.01945024 0.077147409 -0.671
0.020859864 0.077032439 -0.67000002
0.022298474 0.077032439 -0.67000002
0.023701658 0.076917462 -0.66900003
0.025100546 0.076802492 -0.66800004
0.026534865 0.076802492 -0.66800004
0.02796918 0.076802492 -0.66800004
0.029403498 0.076802492 -0.66800004
0.03079165 0.076687522 -0.66700006
0.032223821 0.076687522 -0.66700006
0.03365599 0.076687522 -0.66700006
0.035088163 0.076687522 -0.66700006
0.036465574 0.076572537 -0.66600001
0.037895598 0.076572537 -0.66600001
0.039266571 0.076457568 -0.66500002
0.040694449 0.076457568 -0.66500002
0.042122327 0.076457568 -0.66500002
0.04348471 0.076342598 -0.66400003
0.044978075 0.076457568 -0.66500002
0.046336167 0.076342598 -0.66400003
0.047761898 0.076342598 -0.66400003
0.049113546 0.07622762 -0.66300005
0.050537128 0.07622762 -0.66300005
0.05196071 0.07622762 -0.66300005
0.053384293 0.07622762 -0.66300005
0.054807868 0.07622762 -0.66300005
0.056316264 0.076342598 -0.66400003
0.057828955 0.076457568 -0.66500002
0.059435051 0.076687522 -0.66700006
0.061049722 0.076917462 -0.66900003
0.062672988 0.077147409 -0.671
0.064304851 0.077377364 -0.67300004
0.065847605 0.077492334 -0.67400002
0.067294799 0.077492334 -0.67400002
0.068945989 0.077722281 -0.67600006
0.1107108 0.077492334 -0.67400002
0.112158 0.077492334 -0.67400002
0.19580358 0.077952228 -0.67800003
0.19667751 0.077722281 -0.67600006
0.1975428 0.077492334 -0.67400002
0.19869478 0.077377364 -0.67300004
0.19984244 0.077262387 -0.67200005
0.2009858 0.077147409 -0.671
0.20212488 0.077032439 -0.67000002
0.20325966 0.076917462 -0.66900003
0.2040842 0.076687522 -0.66700006
0.20428388 0.07622762 -0.66300005
0.20508693 0.075997673 -0.66100001
0.21021976 0.07381317 -0.64200002
0.015218146 0.076157957 -0.67500001
0.016642801 0.076045133 -0.67400002
0.018063162 0.075932309 -0.67300004
0.01945024 0.075706646 -0.671
0.020890998 0.075706646 -0.671
0.022298474 0.075593822 -0.67000002
0.023666231 0.075368173 -0.66800004
0.025100546 0.075368173 -0.66800004
0.026534865 0.075368173 -0.66800004
0.02796918 0.075368173 -0.66800004
0.029359482 0.075255349 -0.66700006
0.03079165 0.075255349 -0.66700006
0.032223821 0.075255349 -0.66700006
