# .PCD v0.7 - Point Cloud Data file format
VERSION 0.7
FIELDS x y z
SIZE 4 4 4
TYPE F F F
COUNT 1 1 1
WIDTH 1346
HEIGHT 1
VIEWPOINT 0 0 0 1 0 0 0
POINTS 1346
DATA ascii
-0.22939946 0.032610405 -0.77700001
-0.22802418 0.032652374 -0.77800006
-0.22664464 0.032694343 -0.77900004
-0.22497196 0.032694343 -0.77900004
-0.22358596 0.032736313 -0.78000003
-0.22162667 0.032694343 -0.77900004
-0.21995401 0.032694343 -0.77900004
-0.21828136 0.032694343 -0.77900004
-0.21605256 0.032610405 -0.77700001
-0.21438421 0.032610405 -0.77700001
-0.21326339 0.032694343 -0.77900004
-0.21186236 0.032736313 -0.78000003
-0.21045701 0.032778282 -0.78100002
-0.20904741 0.032820255 -0.78200006
-0.2076335 0.032862224 -0.78300005
-0.20621526 0.032904193 -0.78400004
-0.20453189 0.032904193 -0.78400004
-0.20284848 0.032904193 -0.78400004
-0.20142169 0.032946162 -0.78500003
-0.19999057 0.032988131 -0.78600001
-0.1985552 0.0330301 -0.78700006
-0.19711553 0.033072069 -0.78800005
-0.19567153 0.033114038 -0.78900003
-0.19446911 0.033197977 -0.79100001
-0.1930144 0.033239949 -0.79200006
-0.19179696 0.033323888 -0.79400003
-0.1903315 0.033365857 -0.79500002
-0.18886176 0.03340783 -0.79600006
-0.18762283 0.033491768 -0.79800004
-0.18637531 0.033575706 -0.80000001
-0.18535003 0.033701614 -0.80300003
-0.12017772 0.032400556 -0.77200001
-0.117906 0.032232676 -0.76800001
-0.11550009 0.03202283 -0.76300001
-0.11326488 0.031854954 -0.75900006
-0.11104684 0.031687073 -0.75500005
-0.10913584 0.031603131 -0.75300002
-0.10737623 0.031561162 -0.75200003
-0.10562091 0.031519193 -0.75100005
-0.10386989 0.031477224 -0.75000006
-0.10185046 0.031351317 -0.74700004
-0.10024652 0.031351317 -0.74700004
-0.098510526 0.031309348 -0.74600005
-0.096648909 0.031225406 -0.74400002
-0.095051408 0.031225406 -0.74400002
-0.093328297 0.031183437 -0.74300003
-0.091609485 0.031141467 -0.74200004
-0.090016276 0.031141467 -0.74200004
-0.088423066 0.031141467 -0.74200004
-0.086712837 0.031099498 -0.74100006
-0.0850069 0.031057527 -0.74000001
-0.083417982 0.031057527 -0.74000001
-0.08171849 0.031015558 -0.73900002
-0.080131717 0.031015558 -0.73900002
-0.078438677 0.030973589 -0.73800004
-0.07685405 0.030973589 -0.73800004
-0.07516744 0.03093162 -0.73700005
-0.073584966 0.03093162 -0.73700005
-0.0720025 0.03093162 -0.73700005
-0.070324481 0.030889651 -0.73600006
-0.068744153 0.030889651 -0.73600006
-0.067163825 0.030889651 -0.73600006
-0.065583505 0.030889651 -0.73600006
-0.064090133 0.03093162 -0.73700005
-0.062592477 0.030973589 -0.73800004
-0.061173186 0.031057527 -0.74000001
-0.059745315 0.031141467 -0.74200004
-0.058230478 0.031183437 -0.74300003
-0.056635119 0.031183437 -0.74300003
-0.055039763 0.031183437 -0.74300003
-0.053516343 0.031225406 -0.74400002
-0.051918838 0.031225406 -0.74400002
-0.050388973 0.031267378 -0.74500006
-0.048854809 0.031309348 -0.74600005
-0.047316357 0.031351317 -0.74700004
-0.045773607 0.031393286 -0.74800003
-0.044226561 0.031435255 -0.74900001
-0.042675227 0.031477224 -0.75000006
-0.041174345 0.031561162 -0.75200003
-0.039612271 0.031603131 -0.75300002
-0.038045898 0.031645101 -0.75400001
-0.036523551 0.031729043 -0.75600004
-0.035038773 0.031854954 -0.75900006
-0.033541117 0.031980861 -0.76200002
-0.03194683 0.03202283 -0.76300001
-0.030348258 0.032064799 -0.76400006
-0.028820537 0.032190707 -0.76700002
-0.027102794 0.032106768 -0.76500005
0.0084437896 0.030008288 -0.71500003
0.0098813269 0.029714499 -0.708
0.01421756 0.029252835 -0.69700003
0.015669055 0.029168896 -0.69500005
0.017111959 0.029084954 -0.69300002
0.018573117 0.029042985 -0.69200003
0.020029979 0.029001016 -0.69100004
0.021482548 0.028959047 -0.69000006
0.022964101 0.028959047 -0.69000006
0.0243748 0.028875107 -0.68800002
0.025814483 0.028833138 -0.68700004
0.027289599 0.028833138 -0.68700004
0.02876471 0.028833138 -0.68700004
0.030195808 0.028791169 -0.68600005
0.031668775 0.028791169 -0.68600005
0.03309343 0.0287492 -0.68500006
0.034513786 0.028707229 -0.68400002
0.03598246 0.028707229 -0.68400002
0.037341624 0.02862329 -0.68200004
0.038749106 0.028581321 -0.68100005
0.040211335 0.028581321 -0.68100005
0.041673567 0.028581321 -0.68100005
0.043072451 0.028539348 -0.68000001
0.04453253 0.028539348 -0.68000001
0.046060257 0.028581321 -0.68100005
0.047522485 0.028581321 -0.68100005
0.048984718 0.028581321 -0.68100005
0.050372865 0.028539348 -0.68000001
0.051909178 0.028581321 -0.68100005
0.053371407 0.028581321 -0.68100005
0.054833639 0.028581321 -0.68100005
0.056378532 0.02862329 -0.68200004
0.057927724 0.028665259 -0.68300003
0.059481207 0.028707229 -0.68400002
0.061038993 0.0287492 -0.68500006
0.062601067 0.028791169 -0.68600005
0.064260833 0.028875107 -0.68800002
0.065929197 0.028959047 -0.69000006
0.067703843 0.029084954 -0.69300002
0.069391526 0.029168896 -0.69500005
0.070985809 0.029210865 -0.69600004
0.072584383 0.029252835 -0.69700003
0.074293546 0.029336775 -0.69900006
0.076011278 0.029420713 -0.70100003
0.077958778 0.029588591 -0.70500004
0.079472542 0.029588591 -0.70500004
0.1079667 0.027951775 -0.66600001
0.1087397 0.027783899 -0.66200006
0.10982832 0.027699957 -0.66000003
0.11090835 0.027616018 -0.65800005
0.11180909 0.027490109 -0.65500003
0.11286981 0.027406171 -0.65300006
0.11392191 0.027322231 -0.65100002
0.11514258 0.027280262 -0.65000004
0.11635897 0.027238293 -0.64900005
0.11757104 0.027196322 -0.648
0.11877883 0.027154353 -0.64700001
0.11998233 0.027112383 -0.64600003
0.12099366 0.027028445 -0.64400005
0.12199639 0.026944503 -0.64200002
0.12279836 0.026818596 -0.63900006
0.12378176 0.026734656 -0.63700002
0.12495305 0.026692687 -0.63600004
0.12612005 0.026650717 -0.63500005
0.12728274 0.026608746 -0.634
0.12844115 0.026566777 -0.63300002
0.12980032 0.026566777 -0.63300002
0.13115948 0.026566777 -0.63300002
0.13230929 0.026524808 -0.63200003
0.13366631 0.026524808 -0.63200003
0.13480969 0.026482839 -0.63100004
0.13616456 0.026482839 -0.63100004
0.1373015 0.02644087 -0.63000005
0.13865423 0.02644087 -0.63000005
0.14000694 0.02644087 -0.63000005
0.14113529 0.026398899 -0.62900001
0.14225933 0.02635693 -0.62800002
0.14337909 0.026314961 -0.62700003
0.14472537 0.026314961 -0.62700003
0.14583869 0.026272992 -0.62600005
0.1469477 0.026231019 -0.625
0.14805242 0.02618905 -0.62400001
0.14939228 0.02618905 -0.62400001
0.15073211 0.02618905 -0.62400001
0.15207194 0.02618905 -0.62400001
0.15316594 0.026147081 -0.62300003
0.15450363 0.026147081 -0.62300003
0.15609148 0.02618905 -0.62400001
0.15743132 0.02618905 -0.62400001
0.15928003 0.026272992 -0.62600005
0.16062418 0.026272992 -0.62600005
0.16222703 0.026314961 -0.62700003
0.16357334 0.026314961 -0.62700003
0.16491961 0.026314961 -0.62700003
0.16653107 0.02635693 -0.62800002
0.16787949 0.02635693 -0.62800002
0.16922791 0.02635693 -0.62800002
0.17084797 0.026398899 -0.62900001
0.17219855 0.026398899 -0.62900001
0.17382506 0.02644087 -0.63000005
0.17517777 0.02644087 -0.63000005
0.17681071 0.026482839 -0.63100004
0.17816557 0.026482839 -0.63100004
0.17980495 0.026524808 -0.63200003
0.18144861 0.026566777 -0.63300002
0.18309656 0.026608746 -0.634
0.18474884 0.026650717 -0.63500005
0.18611228 0.026650717 -0.63500005
0.18806623 0.026734656 -0.63700002
0.19002876 0.026818596 -0.63900006
0.19199987 0.026902534 -0.64100003
0.19397955 0.026986472 -0.64300001
0.19566402 0.027028445 -0.64400005
0.19704682 0.027028445 -0.64400005
0.25363579 0.02644087 -0.63000005
0.25498849 0.02644087 -0.63000005
0.2559343 0.026398899 -0.62900001
0.25646684 0.026314961 -0.62700003
0.25740191 0.026272992 -0.62600005
0.25833273 0.026231019 -0.625
0.25925922 0.02618905 -0.62400001
0.26018146 0.026147081 -0.62300003
0.26151913 0.026147081 -0.62300003
0.26243493 0.026105111 -0.62200004
0.2633464 0.026063142 -0.62100005
0.26425356 0.026021171 -0.62
0.2647281 0.025937233 -0.61800003
0.2647635 0.025811324 -0.61500001
0.26521873 0.025727386 -0.61300004
0.26653495 0.025727386 -0.61300004
0.26741424 0.025685417 -0.61200005
0.26872832 0.025685417 -0.61200005
0.27004236 0.025685417 -0.61200005
0.27135646 0.025685417 -0.61200005
0.27267054 0.025685417 -0.61200005
0.27398461 0.025685417 -0.61200005
0.27529868 0.025685417 -0.61200005
0.27661276 0.025685417 -0.61200005
0.27792683 0.025685417 -0.61200005
0.27924091 0.025685417 -0.61200005
0.28055498 0.025685417 -0.61200005
0.28232962 0.025727386 -0.61300004
0.28364584 0.025727386 -0.61300004
0.28496206 0.025727386 -0.61300004
0.28721231 0.025811324 -0.61500001
0.28947115 0.025895264 -0.61700004
0.29126728 0.025937233 -0.61800003
0.29212078 0.025895264 -0.61700004
-0.27568194 0.031658847 -0.79500002
-0.27328569 0.031579204 -0.79300004
-0.27158296 0.031579204 -0.79300004
-0.26851895 0.031419914 -0.78900003
-0.26581025 0.031300444 -0.78600001
-0.26345053 0.031220801 -0.78400004
-0.26176715 0.031220801 -0.78400004
-0.25975201 0.03118098 -0.78300005
-0.25774118 0.031141156 -0.78200006
-0.25638953 0.03118098 -0.78300005
-0.25470829 0.03118098 -0.78300005
-0.25302702 0.03118098 -0.78300005
-0.25166681 0.031220801 -0.78400004
-0.24998342 0.031220801 -0.78400004
-0.24830002 0.031220801 -0.78400004
-0.24661663 0.031220801 -0.78400004
-0.24493323 0.031220801 -0.78400004
-0.24262933 0.031141156 -0.78200006
-0.24095021 0.031141156 -0.78200006
-0.23896514 0.031101333 -0.78100002
-0.23698436 0.031061511 -0.78000003
-0.2350079 0.031021688 -0.77900004
-0.23333526 0.031021688 -0.77900004
-0.23166259 0.031021688 -0.77900004
-0.22998995 0.031021688 -0.77900004
-0.22831728 0.031021688 -0.77900004
-0.22664464 0.031021688 -0.77900004
-0.22497196 0.031021688 -0.77900004
-0.22329932 0.031021688 -0.77900004
-0.22162667 0.031021688 -0.77900004
-0.21967165 0.030981867 -0.77800006
-0.21772094 0.030942043 -0.77700001
-0.21577451 0.03090222 -0.77600002
-0.2141083 0.03090222 -0.77600002
-0.21326339 0.031021688 -0.77900004
-0.21186236 0.031061511 -0.78000003
-0.21045701 0.031101333 -0.78100002
-0.20931473 0.03118098 -0.78300005
-0.20789868 0.031220801 -0.78400004
-0.20621526 0.031220801 -0.78400004
-0.20479277 0.031260625 -0.78500003
-0.20336595 0.031300444 -0.78600001
-0.20167828 0.031300444 -0.78600001
-0.19999057 0.031300444 -0.78600001
-0.1985552 0.031340268 -0.78700006
-0.19736567 0.031419914 -0.78900003
-0.19591953 0.031459734 -0.79000002
-0.19471496 0.031539381 -0.79200006
-0.19325811 0.031579204 -0.79300004
-0.19203851 0.031658847 -0.79500002
-0.19057092 0.03169867 -0.79600006
-0.18933628 0.031778313 -0.79800004
-0.11821306 0.030663287 -0.77000004
-0.11550009 0.030384528 -0.76300001
-0.11311565 0.030185416 -0.75800002
-0.11089975 0.030026127 -0.75400001
-0.10928077 0.030026127 -0.75400001
-0.10737623 0.029946482 -0.75200003
-0.10562091 0.02990666 -0.75100005
-0.10386989 0.029866839 -0.75000006
-0.10185046 0.029747371 -0.74700004
-0.10024652 0.029747371 -0.74700004
-0.098378472 0.029667726 -0.74500006
-0.096648909 0.029627902 -0.74400002
-0.094923653 0.029588081 -0.74300003
-0.093328297 0.029588081 -0.74300003
-0.091732942 0.029588081 -0.74300003
-0.090016276 0.029548258 -0.74200004
-0.088423066 0.029548258 -0.74200004
-0.086829856 0.029548258 -0.74200004
-0.085121773 0.029508436 -0.74100006
-0.083417982 0.029468613 -0.74000001
-0.081829064 0.029468613 -0.74000001
-0.080240153 0.029468613 -0.74000001
-0.078544959 0.029428789 -0.73900002
-0.076958187 0.029428789 -0.73900002
-0.075269431 0.029388968 -0.73800004
-0.073684812 0.029388968 -0.73800004
-0.0720025 0.029349146 -0.73700005
-0.070420027 0.029349146 -0.73700005
-0.068744153 0.029309325 -0.73600006
-0.067163825 0.029309325 -0.73600006
-0.065672606 0.029349146 -0.73700005
-0.064177096 0.029388968 -0.73800004
-0.062677287 0.029428789 -0.73900002
-0.061255854 0.029508436 -0.74100006
-0.059825834 0.029588081 -0.74300003
-0.058308847 0.029627902 -0.74400002
-0.056711346 0.029627902 -0.74400002
-0.055113841 0.029627902 -0.74400002
-0.053588275 0.029667726 -0.74500006
-0.051988624 0.029667726 -0.74500006
-0.050388973 0.029667726 -0.74500006
-0.048854809 0.029707549 -0.74600005
-0.047316357 0.029747371 -0.74700004
-0.045773607 0.029787192 -0.74800003
-0.04428561 0.029866839 -0.75000006
-0.042732127 0.02990666 -0.75100005
-0.041174345 0.029946482 -0.75200003
-0.039612271 0.029986303 -0.75300002
-0.038096361 0.03006595 -0.75500005
-0.03657186 0.030145595 -0.75700003
-0.035084937 0.030265063 -0.76000005
-0.033541117 0.030344706 -0.76200002
-0.03194683 0.030384528 -0.76300001
-0.030348258 0.030424353 -0.76400006
-0.028782962 0.030503996 -0.76600003
-0.02717365 0.030543819 -0.76700002
-0.025460199 0.030464174 -0.76500005
0.0069472045 0.028632341 -0.71900004
0.0084437896 0.028473051 -0.71500003
0.0098813269 0.028194293 -0.708
0.014237958 0.027796069 -0.69800001
0.015691601 0.027716426 -0.69600004
0.017161345 0.027676603 -0.69500005
0.018599955 0.027596958 -0.69300002
0.020058965 0.027557135 -0.69200003
0.021513682 0.027517313 -0.69100004
0.022997383 0.027517313 -0.69100004
0.024445659 0.027477492 -0.69000006
0.025889635 0.027437666 -0.68900001
0.027369043 0.027437666 -0.68900001
0.02880658 0.027397845 -0.68800002
0.030239826 0.027358023 -0.68700004
0.031714939 0.027358023 -0.68700004
0.03314174 0.027318202 -0.68600005
0.034564249 0.027278379 -0.68500006
0.03598246 0.027238555 -0.68400002
0.037396379 0.027198734 -0.68300003
0.038749106 0.027119089 -0.68100005
0.040211335 0.027119089 -0.68100005
0.041612368 0.027079266 -0.68000001
0.043072451 0.027079266 -0.68000001
0.04453253 0.027079266 -0.68000001
0.045992617 0.027079266 -0.68000001
0.047522485 0.027119089 -0.68100005
0.048984718 0.027119089 -0.68100005
0.050372865 0.027079266 -0.68000001
0.051832948 0.027079266 -0.68000001
0.053371407 0.027119089 -0.68100005
0.054833639 0.027119089 -0.68100005
0.056378532 0.02715891 -0.68200004
0.057927724 0.027198734 -0.68300003
0.059481207 0.027238555 -0.68400002
0.061038993 0.027278379 -0.68500006
0.062601067 0.027318202 -0.68600005
0.064260833 0.027397845 -0.68800002
0.065929197 0.027477492 -0.69000006
0.067606144 0.027557135 -0.69200003
0.069391526 0.027676603 -0.69500005
0.071087793 0.027756248 -0.69700003
0.07268852 0.027796069 -0.69800001
0.074399829 0.027875716 -0.70000005
0.076228142 0.027995182 -0.70300001
0.078511678 0.02827394 -0.71000004
0.079539105 0.021225367 -0.53300005
0.1079667 0.026521752 -0.66600001
0.10890395 0.026402285 -0.66300005
0.10982832 0.026282817 -0.66000003
0.11090835 0.026203172 -0.65800005
0.11197979 0.026123527 -0.65600002
0.11304265 0.026043883 -0.65400004
0.1142719 0.026004061 -0.65300006
0.11531972 0.025924414 -0.65100002
0.11635897 0.025844771 -0.64900005
0.11757104 0.025804946 -0.648
0.11877883 0.025765125 -0.64700001
0.11998233 0.025725303 -0.64600003
0.12099366 0.025645658 -0.64400005
0.12199639 0.025566012 -0.64200002
0.12299053 0.025486369 -0.64000005
0.12417041 0.025446547 -0.63900006
0.12534599 0.025406722 -0.63800001
0.12631866 0.025327079 -0.63600004
0.12748352 0.025287256 -0.63500005
0.12864405 0.025247432 -0.634
0.12980032 0.025207611 -0.63300002
0.13115948 0.025207611 -0.63300002
0.13230929 0.025167787 -0.63200003
0.13366631 0.025167787 -0.63200003
0.13502333 0.025167787 -0.63200003
0.13616456 0.025127966 -0.63100004
0.1373015 0.025088144 -0.63000005
0.13865423 0.025088144 -0.63000005
0.14000694 0.025088144 -0.63000005
0.14113529 0.025048319 -0.62900001
0.14248586 0.025048319 -0.62900001
0.14360777 0.025008498 -0.62800002
0.14472537 0.024968676 -0.62700003
0.14583869 0.024928855 -0.62600005
0.14718282 0.024928855 -0.62600005
0.14828968 0.02488903 -0.625
0.14963168 0.02488903 -0.625
0.15073211 0.024849208 -0.62400001
0.15207194 0.024849208 -0.62400001
0.15341179 0.024849208 -0.62400001
0.15475163 0.024849208 -0.62400001
0.15634163 0.02488903 -0.625
0.15768361 0.02488903 -0.625
0.15928003 0.024928855 -0.62600005
0.16088077 0.024968676 -0.62700003
0.16248578 0.025008498 -0.62800002
0.16383421 0.025008498 -0.62800002
0.16518264 0.025008498 -0.62800002
0.16653107 0.025008498 -0.62800002
0.16787949 0.025008498 -0.62800002
0.16922791 0.025008498 -0.62800002
0.17084797 0.025048319 -0.62900001
0.17219855 0.025048319 -0.62900001
0.17382506 0.025088144 -0.63000005
0.17545582 0.025127966 -0.63100004
0.17681071 0.025127966 -0.63100004
0.17844792 0.025167787 -0.63200003
0.18008944 0.025207611 -0.63300002
0.18144861 0.025207611 -0.63300002
0.18338537 0.025287256 -0.63500005
0.18503977 0.025327079 -0.63600004
0.18669847 0.0253669 -0.63700002
0.18865672 0.025446547 -0.63900006
0.19032614 0.025486369 -0.64000005
0.1922994 0.025566012 -0.64200002
0.19397955 0.025605835 -0.64300001
0.19566402 0.025645658 -0.64400005
0.19704682 0.025645658 -0.64400005
0.25323316 0.025048319 -0.62900001
0.25498849 0.025088144 -0.63000005
0.25552741 0.025008498 -0.62800002
0.2560578 0.024928855 -0.62600005
0.25699073 0.02488903 -0.625
0.2579194 0.024849208 -0.62400001
0.25925922 0.024849208 -0.62400001
0.26018146 0.024809387 -0.62300003
0.26151913 0.024809387 -0.62300003
0.26243493 0.024769565 -0.62200004
0.2633464 0.024729742 -0.62100005
0.26382735 0.024650097 -0.61900002
0.26429975 0.024570452 -0.61700004
0.26433301 0.024450984 -0.61400002
0.26521873 0.024411162 -0.61300004
0.26610017 0.024371341 -0.61200005
0.26741424 0.024371341 -0.61200005
0.26872832 0.024371341 -0.61200005
0.27004236 0.024371341 -0.61200005
0.27135646 0.024371341 -0.61200005
0.27267054 0.024371341 -0.61200005
0.27398461 0.024371341 -0.61200005
0.27529868 0.024371341 -0.61200005
0.27661276 0.024371341 -0.61200005
0.27792683 0.024371341 -0.61200005
0.27969718 0.024411162 -0.61300004
0.2810134 0.024411162 -0.61300004
0.28232962 0.024411162 -0.61300004
0.28364584 0.024411162 -0.61300004
0.28496206 0.024411162 -0.61300004
0.28721231 0.024490805 -0.61500001
0.28947115 0.024570452 -0.61700004
0.29126728 0.024610274 -0.61800003
0.29212078 0.024570452 -0.61700004
-0.27498841 0.029876489 -0.79300004
-0.27294108 0.029838815 -0.79200006
-0.2712405 0.029838815 -0.79200006
-0.26851895 0.029725788 -0.78900003
-0.26581025 0.029612761 -0.78600001
-0.26378655 0.029575087 -0.78500003
-0.26176715 0.029537411 -0.78400004
-0.25975201 0.029499738 -0.78300005
-0.25807077 0.029499738 -0.78300005
-0.25638953 0.029499738 -0.78300005
-0.25470829 0.029499738 -0.78300005
-0.25302702 0.029499738 -0.78300005
-0.25166681 0.029537411 -0.78400004
-0.24998342 0.029537411 -0.78400004
-0.24861673 0.029575087 -0.78500003
-0.2469312 0.029575087 -0.78500003
-0.24493323 0.029537411 -0.78400004
-0.24293959 0.029499738 -0.78300005
-0.24125834 0.029499738 -0.78300005
-0.23896514 0.029424386 -0.78100002
-0.23698436 0.02938671 -0.78000003
-0.2350079 0.029349037 -0.77900004
-0.23333526 0.029349037 -0.77900004
-0.23166259 0.029349037 -0.77900004
-0.22969471 0.029311361 -0.77800006
-0.22831728 0.029349037 -0.77900004
-0.22635369 0.029311361 -0.77800006
-0.22468317 0.029311361 -0.77800006
-0.22301267 0.029311361 -0.77800006
-0.22105767 0.029273685 -0.77700001
-0.21938929 0.029273685 -0.77700001
-0.21744074 0.029236009 -0.77600002
-0.21549645 0.029198335 -0.77500004
-0.21383239 0.029198335 -0.77500004
-0.21271585 0.029273685 -0.77700001
-0.21159074 0.029349037 -0.77900004
-0.21045701 0.029424386 -0.78100002
-0.20931473 0.029499738 -0.78300005
-0.20789868 0.029537411 -0.78400004
-0.2064783 0.029575087 -0.78500003
-0.20479277 0.029575087 -0.78500003
-0.20336595 0.029612761 -0.78600001
-0.20167828 0.029612761 -0.78600001
-0.19999057 0.029612761 -0.78600001
-0.1985552 0.029650439 -0.78700006
-0.19736567 0.029725788 -0.78900003
-0.19591953 0.029763464 -0.79000002
-0.19471496 0.029838815 -0.79200006
-0.11534872 0.028708557 -0.76200002
-0.11311565 0.028557854 -0.75800002
-0.11119392 0.028482504 -0.75600004
-0.10928077 0.028407153 -0.75400001
-0.10751902 0.028369479 -0.75300002
-0.10562091 0.028294129 -0.75100005
-0.10386989 0.028256454 -0.75000006
-0.10185046 0.028143428 -0.74700004
-0.10024652 0.028143428 -0.74700004
-0.098510526 0.028105753 -0.74600005
-0.096648909 0.028030401 -0.74400002
-0.095051408 0.028030401 -0.74400002
-0.093328297 0.027992725 -0.74300003
-0.091732942 0.027992725 -0.74300003
-0.090016276 0.027955052 -0.74200004
-0.088423066 0.027955052 -0.74200004
-0.086712837 0.027917376 -0.74100006
-0.085121773 0.027917376 -0.74100006
-0.083417982 0.0278797 -0.74000001
-0.081829064 0.0278797 -0.74000001
-0.080131717 0.027842024 -0.73900002
-0.078544959 0.027842024 -0.73900002
-0.077062324 0.0278797 -0.74000001
-0.075371422 0.027842024 -0.73900002
-0.073784649 0.027842024 -0.73900002
-0.072100192 0.02780435 -0.73800004
-0.070515573 0.02780435 -0.73800004
-0.068930954 0.02780435 -0.73800004
-0.06725508 0.027766675 -0.73700005
-0.065761715 0.02780435 -0.73800004
-0.064264052 0.027842024 -0.73900002
-0.062762097 0.0278797 -0.74000001
-0.061338522 0.027955052 -0.74200004
-0.059906352 0.028030401 -0.74400002
-0.058308847 0.028030401 -0.74400002
-0.056711346 0.028030401 -0.74400002
-0.055113841 0.028030401 -0.74400002
-0.053588275 0.028068079 -0.74500006
-0.052058406 0.028105753 -0.74600005
-0.05045661 0.028105753 -0.74600005
-0.048920296 0.028143428 -0.74700004
-0.047379699 0.028181102 -0.74800003
-0.045895997 0.028256454 -0.75000006
-0.044344656 0.028294129 -0.75100005
-0.042789023 0.028331803 -0.75200003
-0.04128385 0.028407153 -0.75400001
-0.039717484 0.02844483 -0.75500005
-0.03814682 0.028482504 -0.75600004
-0.03657186 0.02852018 -0.75700003
-0.035084937 0.028633207 -0.76000005
-0.033541117 0.028708557 -0.76200002
-0.03194683 0.028746231 -0.76300001
-0.030348258 0.028783908 -0.76400006
-0.028745387 0.028821582 -0.76500005
-0.027138222 0.028859258 -0.76600003
-0.025460199 0.028821582 -0.76500005
0.0069472045 0.027088519 -0.71900004
0.0084555987 0.026975494 -0.71600002
0.0098813269 0.02667409 -0.708
0.011321013 0.026485715 -0.70300001
0.012757477 0.026335016 -0.69900006
0.014237958 0.026297338 -0.69800001
0.015691601 0.026221989 -0.69600004
0.017136652 0.026146637 -0.69400001
0.018626796 0.026146637 -0.69400001
0.020058965 0.026071288 -0.69200003
0.021513682 0.026033612 -0.69100004
0.022997383 0.026033612 -0.69100004
0.024445659 0.025995938 -0.69000006
0.025927212 0.025995938 -0.69000006
0.027408767 0.025995938 -0.69000006
0.028848449 0.025958261 -0.68900001
0.030283842 0.025920587 -0.68800002
0.031714939 0.025882911 -0.68700004
0.03314174 0.025845237 -0.68600005
0.034614705 0.025845237 -0.68600005
0.036035068 0.025807561 -0.68500006
0.037451129 0.025769884 -0.68400002
0.038862903 0.02573221 -0.68300003
0.040270381 0.025694534 -0.68200004
0.041673567 0.02565686 -0.68100005
0.043072451 0.025619183 -0.68000001
0.04453253 0.025619183 -0.68000001
0.045992617 0.025619183 -0.68000001
0.047452699 0.025619183 -0.68000001
0.048912786 0.025619183 -0.68000001
0.050372865 0.025619183 -0.68000001
0.051909178 0.02565686 -0.68100005
0.053371407 0.02565686 -0.68100005
0.054914158 0.025694534 -0.68200004
0.056378532 0.025694534 -0.68200004
0.058012538 0.025769884 -0.68400002
0.059568174 0.025807561 -0.68500006
0.061128102 0.025845237 -0.68600005
0.062692314 0.025882911 -0.68700004
0.064354233 0.025958261 -0.68900001
0.065929197 0.025995938 -0.69000006
0.067606144 0.026071288 -0.69200003
0.069391526 0.026184313 -0.69500005
0.070985809 0.026221989 -0.69600004
0.07268852 0.026297338 -0.69800001
0.074399829 0.02637269 -0.70000005
0.076228142 0.026485715 -0.70300001
0.078511678 0.026749443 -0.71000004
0.07938987 0.020043243 -0.53200001
0.1079667 0.02509173 -0.66600001
0.1087397 0.024941031 -0.66200006
0.10982832 0.024865678 -0.66000003
0.11090835 0.024790328 -0.65800005
0.11197979 0.024714977 -0.65600002
0.11321549 0.024677303 -0.65500003
0.11444689 0.024639627 -0.65400004
0.11549687 0.024564276 -0.65200001
0.11653825 0.024488926 -0.65000004
0.11775248 0.024451252 -0.64900005
0.11896241 0.024413574 -0.648
0.11998233 0.024338225 -0.64600003
0.12118154 0.024300549 -0.64500004
0.12237645 0.024262875 -0.64400005
0.12337487 0.024187524 -0.64200002
0.12436473 0.024112174 -0.64000005
0.12554246 0.024074499 -0.63900006
0.12651728 0.023999147 -0.63700002
0.12748352 0.023923798 -0.63500005
0.12884697 0.023923798 -0.63500005
0.13000537 0.02388612 -0.634
0.13115948 0.023848446 -0.63300002
0.13230929 0.02381077 -0.63200003
0.13366631 0.02381077 -0.63200003
0.13502333 0.02381077 -0.63200003
0.13616456 0.023773097 -0.63100004
0.13751943 0.023773097 -0.63100004
0.13887431 0.023773097 -0.63100004
0.14000694 0.023735421 -0.63000005
0.14135967 0.023735421 -0.63000005
0.1427124 0.023735421 -0.63000005
0.14383644 0.023697745 -0.62900001
0.14518701 0.023697745 -0.62900001
0.14607166 0.023622395 -0.62700003
0.14718282 0.02358472 -0.62600005
0.14852697 0.02358472 -0.62600005
0.14963168 0.023547042 -0.625
0.15097366 0.023547042 -0.625
0.15231565 0.023547042 -0.625
0.15365763 0.023547042 -0.625
0.15499963 0.023547042 -0.625
0.15659179 0.02358472 -0.62600005
0.15818819 0.023622395 -0.62700003
0.15953447 0.023622395 -0.62700003
0.16113736 0.023660069 -0.62800002
0.16274451 0.023697745 -0.62900001
0.16409509 0.023697745 -0.62900001
0.16544566 0.023697745 -0.62900001
0.16679625 0.023697745 -0.62900001
0.16787949 0.023660069 -0.62800002
0.16922791 0.023660069 -0.62800002
0.17084797 0.023697745 -0.62900001
0.17219855 0.023697745 -0.62900001
0.17382506 0.023735421 -0.63000005
0.17545582 0.023773097 -0.63100004
0.17709091 0.02381077 -0.63200003
0.17873028 0.023848446 -0.63300002
0.18008944 0.023848446 -0.63300002
0.18173525 0.02388612 -0.634
0.18338537 0.023923798 -0.63500005
0.18503977 0.023961473 -0.63600004
0.18669847 0.023999147 -0.63700002
0.18865672 0.024074499 -0.63900006
0.19062351 0.024149848 -0.64100003
0.1922994 0.024187524 -0.64200002
0.19397955 0.024225198 -0.64300001
0.19536018 0.024225198 -0.64300001
0.19674082 0.024225198 -0.64300001
0.25228304 0.023735421 -0.63000005
0.25403836 0.023773097 -0.63100004
0.25498849 0.023735421 -0.63000005
0.25552741 0.023660069 -0.62800002
0.2560578 0.02358472 -0.62600005
0.25657955 0.023509368 -0.62400001
0.2579194 0.023509368 -0.62400001
0.25884375 0.023471694 -0.62300003
0.26018146 0.023471694 -0.62300003
0.26109937 0.023434019 -0.62200004
0.26201302 0.023396345 -0.62100005
0.26292232 0.023358667 -0.62
0.26382735 0.023320992 -0.61900002
0.2638714 0.023207968 -0.61600006
0.26433301 0.023132617 -0.61400002
0.26521873 0.023094941 -0.61300004
0.26610017 0.023057267 -0.61200005
0.26741424 0.023057267 -0.61200005
0.26872832 0.023057267 -0.61200005
0.27004236 0.023057267 -0.61200005
0.27135646 0.023057267 -0.61200005
0.27267054 0.023057267 -0.61200005
0.27398461 0.023057267 -0.61200005
0.27529868 0.023057267 -0.61200005
0.27706474 0.023094941 -0.61300004
0.27838096 0.023094941 -0.61300004
0.27969718 0.023094941 -0.61300004
0.2810134 0.023094941 -0.61300004
0.28232962 0.023094941 -0.61300004
0.28364584 0.023094941 -0.61300004
0.28542691 0.023132617 -0.61400002
0.28721231 0.023170291 -0.61500001
0.289002 0.023207968 -0.61600006
0.29173857 0.023320992 -0.61900002
0.29259422 0.023283318 -0.61800003
-0.26581025 0.027925076 -0.78600001
-0.26345053 0.027854022 -0.78400004
-0.26143327 0.027818494 -0.78300005
-0.25975201 0.027818494 -0.78300005
-0.25807077 0.027818494 -0.78300005
-0.25638953 0.027818494 -0.78300005
-0.25470829 0.027818494 -0.78300005
-0.25335017 0.027854022 -0.78400004
-0.25166681 0.027854022 -0.78400004
-0.25030228 0.027889548 -0.78500003
-0.24893343 0.027925076 -0.78600001
-0.24724576 0.027925076 -0.78600001
-0.24524565 0.027889548 -0.78500003
-0.24293959 0.027818494 -0.78300005
-0.24125834 0.027818494 -0.78300005
-0.23927113 0.027782965 -0.78200006
-0.23698436 0.027711907 -0.78000003
-0.23530957 0.027711907 -0.78000003
-0.23333526 0.027676381 -0.77900004
-0.23166259 0.027676381 -0.77900004
-0.22969471 0.027640853 -0.77800006
-0.22802418 0.027640853 -0.77800006
-0.22635369 0.027640853 -0.77800006
-0.22468317 0.027640853 -0.77800006
-0.22301267 0.027640853 -0.77800006
-0.22134218 0.027640853 -0.77800006
-0.21938929 0.027605323 -0.77700001
-0.21744074 0.027569795 -0.77600002
-0.21549645 0.027534269 -0.77500004
-0.21383239 0.027534269 -0.77500004
-0.21244209 0.027569795 -0.77600002
-0.21131913 0.027640853 -0.77800006
-0.21018754 0.027711907 -0.78000003
-0.20904741 0.027782965 -0.78200006
-0.20789868 0.027854022 -0.78400004
-0.2064783 0.027889548 -0.78500003
-0.20479277 0.027889548 -0.78500003
-0.20336595 0.027925076 -0.78600001
-0.20167828 0.027925076 -0.78600001
-0.20024502 0.027960606 -0.78700006
-0.11821306 0.027356628 -0.77000004
-0.11550009 0.02710793 -0.76300001
-0.11326488 0.026965819 -0.75900006
-0.11119392 0.026859235 -0.75600004
-0.10942572 0.026823707 -0.75500005
-0.10751902 0.026752649 -0.75300002
-0.10562091 0.026681595 -0.75100005
-0.10386989 0.026646066 -0.75000006
-0.10198681 0.026575008 -0.74800003
-0.10024652 0.026539482 -0.74700004
-0.098510526 0.026503954 -0.74600005
-0.096778825 0.026468426 -0.74500006
-0.095051408 0.026432896 -0.74400002
-0.093453906 0.026432896 -0.74400002
-0.091732942 0.02639737 -0.74300003
-0.090137586 0.02639737 -0.74300003
-0.088423066 0.026361842 -0.74200004
-0.086712837 0.026326314 -0.74100006
-0.085121773 0.026326314 -0.74100006
-0.083417982 0.026290784 -0.74000001
-0.081829064 0.026290784 -0.74000001
-0.080131717 0.026255256 -0.73900002
-0.078544959 0.026255256 -0.73900002
-0.076958187 0.026255256 -0.73900002
-0.075371422 0.026255256 -0.73900002
-0.073784649 0.026255256 -0.73900002
-0.072100192 0.026219729 -0.73800004
-0.070515573 0.026219729 -0.73800004
-0.068930954 0.026219729 -0.73800004
-0.067346334 0.026219729 -0.73800004
-0.065850824 0.026255256 -0.73900002
-0.064351015 0.026290784 -0.74000001
-0.062931731 0.026361842 -0.74200004
-0.061421186 0.02639737 -0.74300003
-0.059906352 0.026432896 -0.74400002
-0.058387224 0.026468426 -0.74500006
-0.056787573 0.026468426 -0.74500006
-0.055187922 0.026468426 -0.74500006
-0.053660206 0.026503954 -0.74600005
-0.052058406 0.026503954 -0.74600005
-0.050524242 0.026539482 -0.74700004
-0.048985787 0.026575008 -0.74800003
-0.04744304 0.026610537 -0.74900001
-0.045957193 0.026681595 -0.75100005
-0.044403702 0.026717123 -0.75200003
-0.042902824 0.026788177 -0.75400001
-0.041393355 0.026859235 -0.75600004
-0.039822694 0.026894763 -0.75700003
-0.038247734 0.026930289 -0.75800002
-0.036668487 0.026965819 -0.75900006
-0.035177264 0.027072402 -0.76200002
-0.033585131 0.02710793 -0.76300001
-0.03194683 0.02710793 -0.76300001
-0.030348258 0.02714346 -0.76400006
-0.028745387 0.027178988 -0.76500005
-0.02717365 0.027250042 -0.76700002
-0.025460199 0.027178988 -0.76500005
0.0054033813 0.025544696 -0.71900004
0.0069278795 0.025473638 -0.71700001
0.0084319804 0.025367055 -0.71400005
0.0098534143 0.02508283 -0.70600003
0.011288805 0.02490519 -0.70100003
0.012757477 0.024834134 -0.69900006
0.014237958 0.024798604 -0.69800001
0.015691601 0.024727549 -0.69600004
0.017161345 0.024692021 -0.69500005
0.018626796 0.024656491 -0.69400001
0.020058965 0.024585437 -0.69200003
0.021513682 0.024549909 -0.69100004
0.022997383 0.024549909 -0.69100004
0.024445659 0.024514381 -0.69000006
0.025927212 0.024514381 -0.69000006
0.027408767 0.024514381 -0.69000006
0.028848449 0.024478851 -0.68900001
0.030283842 0.024443325 -0.68800002
0.031761102 0.024443325 -0.68800002
0.033190053 0.024407797 -0.68700004
0.034614705 0.024372268 -0.68600005
0.036035068 0.02433674 -0.68500006
0.037451129 0.024301212 -0.68400002
0.038862903 0.024265684 -0.68300003
0.040329427 0.024265684 -0.68300003
0.041734759 0.024230156 -0.68200004
0.043135796 0.024194628 -0.68100005
0.044598024 0.024194628 -0.68100005
0.046060257 0.024194628 -0.68100005
0.047452699 0.024159098 -0.68000001
0.048984718 0.024194628 -0.68100005
0.050372865 0.024159098 -0.68000001
0.051909178 0.024194628 -0.68100005
0.053371407 0.024194628 -0.68100005
0.054914158 0.024230156 -0.68200004
0.056378532 0.024230156 -0.68200004
0.058012538 0.024301212 -0.68400002
0.059655134 0.024372268 -0.68600005
0.061128102 0.024372268 -0.68600005
0.062692314 0.024407797 -0.68700004
0.064354233 0.024478851 -0.68900001
0.066024743 0.024549909 -0.69100004
0.067703843 0.024620965 -0.69300002
0.069491364 0.024727549 -0.69600004
0.071087793 0.024763077 -0.69700003
0.072792664 0.024834134 -0.69900006
0.074506111 0.02490519 -0.70100003
0.076445013 0.025047302 -0.70500004
0.078401096 0.025189415 -0.70900005
0.079091415 0.018829886 -0.53000003
0.10701658 0.023768291 -0.66900003
0.1079667 0.023661705 -0.66600001
0.1087397 0.023519594 -0.66200006
0.10982832 0.023448538 -0.66000003
0.11090835 0.023377482 -0.65800005
0.11215049 0.023341952 -0.65700001
0.11338834 0.023306426 -0.65600002
0.11462189 0.023270898 -0.65500003
0.11567401 0.023199841 -0.65300006
0.11689683 0.023164313 -0.65200001
0.11793392 0.023093257 -0.65000004
0.11896241 0.023022199 -0.648
0.12016806 0.022986673 -0.64700001
0.12118154 0.022915617 -0.64500004
0.12237645 0.022880089 -0.64400005
0.12337487 0.022809032 -0.64200002
0.12455904 0.022773504 -0.64100003
0.12573892 0.022737976 -0.64000005
0.12671588 0.02266692 -0.63800001
0.12768427 0.022595864 -0.63600004
0.12884697 0.022560336 -0.63500005
0.13000537 0.022524808 -0.634
0.13115948 0.02248928 -0.63300002
0.13230929 0.022453751 -0.63200003
0.13366631 0.022453751 -0.63200003
0.13480969 0.022418223 -0.63100004
0.13616456 0.022418223 -0.63100004
0.13751943 0.022418223 -0.63100004
0.13887431 0.022418223 -0.63100004
0.14022918 0.022418223 -0.63100004
0.14158405 0.022418223 -0.63100004
0.1427124 0.022382697 -0.63000005
0.14406511 0.022382697 -0.63000005
0.14541784 0.022382697 -0.63000005
0.14653759 0.022347167 -0.62900001
0.14765306 0.022311639 -0.62800002
0.14876422 0.022276111 -0.62700003
0.15011051 0.022276111 -0.62700003
0.15121524 0.022240583 -0.62600005
0.15255937 0.022240583 -0.62600005
0.1539035 0.022240583 -0.62600005
0.15524763 0.022240583 -0.62600005
0.15659179 0.022240583 -0.62600005
0.15818819 0.022276111 -0.62700003
0.15953447 0.022276111 -0.62700003
0.16113736 0.022311639 -0.62800002
0.16274451 0.022347167 -0.62900001
0.16409509 0.022347167 -0.62900001
0.16544566 0.022347167 -0.62900001
0.16679625 0.022347167 -0.62900001
0.16814682 0.022347167 -0.62900001
0.16949739 0.022347167 -0.62900001
0.17084797 0.022347167 -0.62900001
0.17219855 0.022347167 -0.62900001
0.17382506 0.022382697 -0.63000005
0.17545582 0.022418223 -0.63100004
0.17709091 0.022453751 -0.63200003
0.17873028 0.02248928 -0.63300002
0.18037395 0.022524808 -0.634
0.18202192 0.022560336 -0.63500005
0.18338537 0.022560336 -0.63500005
0.18533072 0.022631392 -0.63700002
0.18699154 0.02266692 -0.63800001
0.18895194 0.022737976 -0.64000005
0.19092089 0.022809032 -0.64200002
0.19259892 0.02284456 -0.64300001
0.19397955 0.02284456 -0.64300001
0.19536018 0.02284456 -0.64300001
0.19704682 0.022880089 -0.64400005
0.25403836 0.022418223 -0.63100004
0.25498849 0.022382697 -0.63000005
0.25552741 0.022311639 -0.62800002
0.2560578 0.022240583 -0.62600005
0.25657955 0.022169527 -0.62400001
0.2579194 0.022169527 -0.62400001
0.25884375 0.022133999 -0.62300003
0.25976384 0.02209847 -0.62200004
0.26109937 0.02209847 -0.62200004
0.26201302 0.022062942 -0.62100005
0.26292232 0.022027414 -0.62
0.26340115 0.021956358 -0.61800003
0.26344299 0.021849774 -0.61500001
0.26433301 0.021814246 -0.61400002
0.26521873 0.021778718 -0.61300004
0.26610017 0.02174319 -0.61200005
0.26785117 0.021778718 -0.61300004
0.26916739 0.021778718 -0.61300004
0.27048361 0.021778718 -0.61300004
0.27179983 0.021778718 -0.61300004
0.27311605 0.021778718 -0.61300004
0.2744323 0.021778718 -0.61300004
0.27574852 0.021778718 -0.61300004
0.27706474 0.021778718 -0.61300004
0.27792683 0.02174319 -0.61200005
0.27969718 0.021778718 -0.61300004
0.2810134 0.021778718 -0.61300004
0.28232962 0.021778718 -0.61300004
0.28364584 0.021778718 -0.61300004
0.28542691 0.021814246 -0.61400002
0.28674531 0.021814246 -0.61400002
0.289002 0.021885304 -0.61600006
0.29079598 0.02192083 -0.61700004
0.29212078 0.02192083 -0.61700004
-0.26008373 0.026170632 -0.78400004
-0.25840038 0.026170632 -0.78400004
-0.25671697 0.026170632 -0.78400004
-0.24493323 0.026170632 -0.78400004
-0.24293959 0.026137251 -0.78300005
-0.24125834 0.026137251 -0.78300005
-0.23927113 0.026103871 -0.78200006
-0.23698436 0.026037108 -0.78000003
-0.23530957 0.026037108 -0.78000003
-0.23363478 0.026037108 -0.78000003
-0.23195997 0.026037108 -0.78000003
-0.22998995 0.026003728 -0.77900004
-0.22831728 0.026003728 -0.77900004
-0.22664464 0.026003728 -0.77900004
-0.22497196 0.026003728 -0.77900004
-0.22358596 0.026037108 -0.78000003
-0.22191118 0.026037108 -0.78000003
-0.21995401 0.026003728 -0.77900004
-0.21772094 0.025936965 -0.77700001
-0.21577451 0.025903584 -0.77600002
-0.21438421 0.025936965 -0.77700001
-0.21271585 0.025936965 -0.77700001
-0.21159074 0.026003728 -0.77900004
-0.21018754 0.026037108 -0.78000003
-0.20931473 0.026137251 -0.78300005
-0.1223088 0.025870204 -0.77500004
-0.1203334 0.025803443 -0.77300006
-0.11821306 0.0257033 -0.77000004
-0.11550009 0.025469633 -0.76300001
-0.11326488 0.025336111 -0.75900006
-0.11119392 0.025235968 -0.75600004
-0.10928077 0.025169205 -0.75400001
-0.10737623 0.025102444 -0.75200003
-0.10562091 0.025069064 -0.75100005
-0.10373139 0.025002299 -0.74900001
-0.10185046 0.024935538 -0.74700004
-0.10024652 0.024935538 -0.74700004
-0.098510526 0.024902157 -0.74600005
-0.096778825 0.024868777 -0.74500006
-0.09517917 0.024868777 -0.74500006
-0.093453906 0.024835395 -0.74400002
-0.091856405 0.024835395 -0.74400002
-0.090137586 0.024802014 -0.74300003
-0.08854223 0.024802014 -0.74300003
-0.086829856 0.024768634 -0.74200004
-0.085121773 0.024735253 -0.74100006
-0.083530717 0.024735253 -0.74100006
-0.081829064 0.024701871 -0.74000001
-0.080240153 0.024701871 -0.74000001
-0.078651242 0.024701871 -0.74000001
-0.077062324 0.024701871 -0.74000001
-0.075473413 0.024701871 -0.74000001
-0.073884495 0.024701871 -0.74000001
-0.072197892 0.024668491 -0.73900002
-0.070611119 0.024668491 -0.73900002
-0.069024354 0.024668491 -0.73900002
-0.067437589 0.024668491 -0.73900002
-0.065939933 0.024701871 -0.74000001
-0.064524941 0.024768634 -0.74200004
-0.063016541 0.024802014 -0.74300003
-0.06150385 0.024835395 -0.74400002
-0.059986874 0.024868777 -0.74500006
-0.058387224 0.024868777 -0.74500006
-0.056787573 0.024868777 -0.74500006
-0.055261999 0.024902157 -0.74600005
-0.053660206 0.024902157 -0.74600005
-0.052128188 0.024935538 -0.74700004
-0.050591879 0.024968918 -0.74800003
-0.049116768 0.025035683 -0.75000006
-0.047569726 0.025069064 -0.75100005
-0.046018384 0.025102444 -0.75200003
-0.044521797 0.025169205 -0.75400001
-0.043016627 0.025235968 -0.75600004
-0.041502859 0.025302729 -0.75800002
-0.039927907 0.025336111 -0.75900006
-0.038348652 0.025369491 -0.76000005
-0.03676511 0.025402872 -0.76100004
-0.035223428 0.025469633 -0.76300001
-0.033629153 0.025503015 -0.76400006
-0.031988703 0.025503015 -0.76400006
-0.030387981 0.025536396 -0.76500005
-0.028745387 0.025536396 -0.76500005
-0.027102794 0.025536396 -0.76500005
0.0053883507 0.023934111 -0.71700001
0.0069182171 0.023900731 -0.71600002
0.0084319804 0.02383397 -0.71400005
0.0098534143 0.023566922 -0.70600003
0.011304908 0.023433397 -0.70200002
0.012757477 0.023333255 -0.69900006
0.014237958 0.023299873 -0.69800001
0.015691601 0.023233112 -0.69600004
0.017186038 0.023233112 -0.69600004
0.018653637 0.023199731 -0.69500005
0.020087952 0.023132969 -0.69300002
0.021513682 0.023066208 -0.69100004
0.022997383 0.023066208 -0.69100004
0.024410227 0.022999445 -0.68900001
0.025889635 0.022999445 -0.68900001
0.027369043 0.022999445 -0.68900001
0.028848449 0.022999445 -0.68900001
0.030283842 0.022966065 -0.68800002
0.031714939 0.022932684 -0.68700004
0.03314174 0.022899304 -0.68600005
0.034614705 0.022899304 -0.68600005
0.036087673 0.022899304 -0.68600005
0.037451129 0.022832541 -0.68400002
0.038919803 0.022832541 -0.68400002
0.040388472 0.022832541 -0.68400002
0.041795954 0.02279916 -0.68300003
0.043199137 0.02276578 -0.68200004
0.044729002 0.02279916 -0.68300003
0.046195526 0.02279916 -0.68300003
0.047592271 0.02276578 -0.68200004
0.048984718 0.022732399 -0.68100005
0.050446946 0.022732399 -0.68100005
0.051909178 0.022732399 -0.68100005
0.05344978 0.02276578 -0.68200004
0.054994676 0.02279916 -0.68300003
0.056461196 0.02279916 -0.68300003
0.058012538 0.022832541 -0.68400002
0.059655134 0.022899304 -0.68600005
0.061128102 0.022899304 -0.68600005
0.062692314 0.022932684 -0.68700004
0.064354233 0.022999445 -0.68900001
0.066024743 0.023066208 -0.69100004
0.067703843 0.023132969 -0.69300002
0.069491364 0.023233112 -0.69600004
0.071087793 0.023266492 -0.69700003
0.072792664 0.023333255 -0.69900006
0.074506111 0.023400016 -0.70100003
0.076553442 0.023566922 -0.70600003
0.078290515 0.023633683 -0.708
0.078494497 0.017558359 -0.52600002
0.10717653 0.022365209 -0.67000002
0.10812882 0.022265067 -0.66700006
0.1087397 0.022098163 -0.66200006
0.10982832 0.0220314 -0.66000003
0.11090835 0.021964639 -0.65800005
0.11215049 0.021931255 -0.65700001
0.11338834 0.021897875 -0.65600002
0.11462189 0.021864494 -0.65500003
0.11585116 0.021831114 -0.65400004
0.11707612 0.021797733 -0.65300006
0.11811536 0.021730971 -0.65100002
0.11914601 0.02166421 -0.64900005
0.12016806 0.021597447 -0.64700001
0.12136941 0.021564066 -0.64600003
0.12256647 0.021530686 -0.64500004
0.12356704 0.021463923 -0.64300001
0.12455904 0.021397162 -0.64100003
0.12573892 0.021363782 -0.64000005
0.12691452 0.021330401 -0.63900006
0.12788503 0.021263639 -0.63700002
0.12904988 0.021230258 -0.63600004
0.13021043 0.021196878 -0.63500005
0.13115948 0.021130115 -0.63300002
0.13230929 0.021096734 -0.63200003
0.13366631 0.021096734 -0.63200003
0.13480969 0.021063354 -0.63100004
0.13616456 0.021063354 -0.63100004
0.13751943 0.021063354 -0.63100004
0.13887431 0.021063354 -0.63100004
0.14022918 0.021063354 -0.63100004
0.14158405 0.021063354 -0.63100004
0.14293891 0.021063354 -0.63100004
0.14429379 0.021063354 -0.63100004
0.14564866 0.021063354 -0.63100004
0.14677057 0.021029973 -0.63000005
0.14812329 0.021029973 -0.63000005
0.14923875 0.020996591 -0.62900001
0.15058932 0.020996591 -0.62900001
0.15145679 0.02092983 -0.62700003
0.15280306 0.02092983 -0.62700003
0.15414935 0.02092983 -0.62700003
0.15549563 0.02092983 -0.62700003
0.15684192 0.02092983 -0.62700003
0.15818819 0.02092983 -0.62700003
0.15978891 0.020963211 -0.62800002
0.16139394 0.020996591 -0.62900001
0.16274451 0.020996591 -0.62900001
0.16409509 0.020996591 -0.62900001
0.16544566 0.020996591 -0.62900001
0.16679625 0.020996591 -0.62900001
0.16814682 0.020996591 -0.62900001
0.16949739 0.020996591 -0.62900001
0.17084797 0.020996591 -0.62900001
0.17247231 0.021029973 -0.63000005
0.17382506 0.021029973 -0.63000005
0.17545582 0.021063354 -0.63100004
0.17709091 0.021096734 -0.63200003
0.17873028 0.021130115 -0.63300002
0.18037395 0.021163495 -0.634
0.18173525 0.021163495 -0.634
0.18338537 0.021196878 -0.63500005
0.18562165 0.021297019 -0.63800001
0.18728465 0.021330401 -0.63900006
0.18924718 0.021397162 -0.64100003
0.19121827 0.021463923 -0.64300001
0.19289847 0.021497305 -0.64400005
0.19428125 0.021497305 -0.64400005
0.19627166 0.021564066 -0.64600003
0.25228304 0.021029973 -0.63000005
0.25444096 0.021096734 -0.63200003
0.25579798 0.021096734 -0.63200003
0.2559343 0.020996591 -0.62900001
0.25646684 0.02092983 -0.62700003
0.25699073 0.020863067 -0.625
0.2579194 0.020829687 -0.62400001
0.25884375 0.020796306 -0.62300003
0.26018146 0.020796306 -0.62300003
0.26109937 0.020762926 -0.62200004
0.26159108 0.020696163 -0.62
0.26249826 0.020662783 -0.61900002
0.26340115 0.020629402 -0.61800003
0.26344299 0.020529259 -0.61500001
0.26390252 0.020462498 -0.61300004
0.26521873 0.020462498 -0.61300004
0.26610017 0.020429118 -0.61200005
0.26785117 0.020462498 -0.61300004
0.26916739 0.020462498 -0.61300004
0.27048361 0.020462498 -0.61300004
0.27179983 0.020462498 -0.61300004
0.27311605 0.020462498 -0.61300004
0.2744323 0.020462498 -0.61300004
0.27574852 0.020462498 -0.61300004
0.27706474 0.020462498 -0.61300004
0.27838096 0.020462498 -0.61300004
0.28015345 0.020495879 -0.61400002
0.28147182 0.020495879 -0.61400002
0.28279018 0.020495879 -0.61400002
0.28410855 0.020495879 -0.61400002
0.28542691 0.020495879 -0.61400002
0.28721231 0.020529259 -0.61500001
0.28947115 0.020596022 -0.61700004
0.29126728 0.020629402 -0.61800003
-0.21828136 0.024331072 -0.77900004
-0.21605256 0.024268605 -0.77700001
-0.21438421 0.024268605 -0.77700001
-0.21271585 0.024268605 -0.77700001
-0.2110475 0.024268605 -0.77700001
-0.1223088 0.024206137 -0.77500004
-0.1203334 0.024143672 -0.77300006
-0.11821306 0.024049969 -0.77000004
-0.11565147 0.023862567 -0.76400006
-0.11341411 0.023737632 -0.76000005
-0.11119392 0.023612697 -0.75600004
-0.10928077 0.023550229 -0.75400001
-0.10737623 0.023487762 -0.75200003
-0.10548027 0.023425294 -0.75000006
-0.10359289 0.023362827 -0.74800003
-0.10185046 0.023331594 -0.74700004
-0.10024652 0.023331594 -0.74700004
-0.098642573 0.023331594 -0.74700004
-0.096908726 0.023300359 -0.74600005
-0.095306925 0.023300359 -0.74600005
-0.093579523 0.023269126 -0.74500006
-0.091856405 0.023237891 -0.74400002
-0.090258904 0.023237891 -0.74400002
-0.08854223 0.023206659 -0.74300003
-0.086829856 0.023175424 -0.74200004
-0.085236646 0.023175424 -0.74200004
-0.083417982 0.023112956 -0.74000001
-0.081829064 0.023112956 -0.74000001
-0.080240153 0.023112956 -0.74000001
-0.078651242 0.023112956 -0.74000001
-0.077062324 0.023112956 -0.74000001
-0.075473413 0.023112956 -0.74000001
-0.073984347 0.023144191 -0.74100006
-0.072393291 0.023144191 -0.74100006
-0.070706673 0.023112956 -0.74000001
-0.069117755 0.023112956 -0.74000001
-0.067528836 0.023112956 -0.74000001
-0.066118151 0.023175424 -0.74200004
-0.064611897 0.023206659 -0.74300003
-0.063016541 0.023206659 -0.74300003
-0.06150385 0.023237891 -0.74400002
-0.059986874 0.023269126 -0.74500006
-0.058387224 0.023269126 -0.74500006
-0.056863796 0.023300359 -0.74600005
-0.055261999 0.023300359 -0.74600005
-0.053660206 0.023300359 -0.74600005
-0.052128188 0.023331594 -0.74700004
-0.050659515 0.023394059 -0.74900001
-0.049182255 0.023456529 -0.75100005
-0.047633067 0.023487762 -0.75200003
-0.04607958 0.023518994 -0.75300002
-0.044580847 0.023581464 -0.75500005
-0.043130424 0.023675164 -0.75800002
-0.041502859 0.023675164 -0.75800002
-0.039927907 0.023706399 -0.75900006
-0.038348652 0.023737632 -0.76000005
-0.03676511 0.023768865 -0.76100004
-0.035177264 0.023800099 -0.76200002
-0.033585131 0.023831332 -0.76300001
-0.03194683 0.023831332 -0.76300001
-0.030387981 0.0238938 -0.76500005
-0.028745387 0.0238938 -0.76500005
-0.027138222 0.023925034 -0.76600003
0.0053883507 0.022394581 -0.71700001
0.0069182171 0.022363348 -0.71600002
0.0084201712 0.022269648 -0.71300006
0.0098534143 0.02205101 -0.70600003
0.011304908 0.021926075 -0.70200002
0.012775728 0.021863608 -0.70000005
0.014237958 0.02180114 -0.69800001
0.015714144 0.021769907 -0.69700003
0.017186038 0.021738673 -0.69600004
0.018680476 0.021738673 -0.69600004
0.02011694 0.021676205 -0.69400001
0.021513682 0.021582505 -0.69100004
0.022997383 0.021582505 -0.69100004
0.024410227 0.021520037 -0.68900001
0.025889635 0.021520037 -0.68900001
0.027369043 0.021520037 -0.68900001
0.02880658 0.021488803 -0.68800002
0.030239826 0.02145757 -0.68700004
0.031714939 0.02145757 -0.68700004
0.03314174 0.021426337 -0.68600005
0.034614705 0.021426337 -0.68600005
0.036035068 0.021395102 -0.68500006
0.037451129 0.021363867 -0.68400002
0.038919803 0.021363867 -0.68400002
0.040388472 0.021363867 -0.68400002
0.041795954 0.021332635 -0.68300003
0.043262478 0.021332635 -0.68300003
0.044729002 0.021332635 -0.68300003
0.046195526 0.021332635 -0.68300003
0.047592271 0.021301402 -0.68200004
0.048984718 0.021270167 -0.68100005
0.050446946 0.021270167 -0.68100005
0.051985402 0.021301402 -0.68200004
0.053528152 0.021332635 -0.68300003
0.054994676 0.021332635 -0.68300003
0.056543864 0.021363867 -0.68400002
0.058097355 0.021395102 -0.68500006
0.059655134 0.021426337 -0.68600005
0.061128102 0.021426337 -0.68600005
0.062692314 0.02145757 -0.68700004
0.064354233 0.021520037 -0.68900001
0.066024743 0.021582505 -0.69100004
0.067801535 0.021676205 -0.69400001
0.069491364 0.021738673 -0.69600004
0.071189784 0.02180114 -0.69800001
0.072792664 0.021832375 -0.69900006
0.074506111 0.021894842 -0.70100003
0.076661877 0.022082243 -0.70700002
