# .PCD v0.7 - Point Cloud Data file format
VERSION 0.7
FIELDS x y z
SIZE 4 4 4
TYPE F F F
COUNT 1 1 1
WIDTH 1172
HEIGHT 1
VIEWPOINT 0 0 0 1 0 0 0
POINTS 1172
DATA ascii
-0.18110721 0.067886457 -0.83100003
-0.17663485 0.04562087 -0.82368749
-0.17607324 0.054120779 -0.82250017
-0.18102078 0.067191526 -0.82249999
-0.17775789 0.062430549 -0.82375008
-0.17847727 0.076952487 -0.82300013
-0.18023545 0.080877572 -0.82700002
-0.18008302 0.042708337 -0.81033343
-0.17885733 0.044716809 -0.81533343
-0.1772577 0.054571971 -0.81537503
-0.18003039 0.064189859 -0.81800002
-0.1785475 0.06353496 -0.81525004
-0.17829655 0.074132189 -0.8136667
-0.17870988 0.081154138 -0.81200004
-0.18340378 0.045065321 -0.80583334
-0.17971262 0.047829561 -0.80866671
-0.18346298 0.054880016 -0.8043462
-0.17912613 0.056154951 -0.80714291
-0.18073857 0.064920917 -0.802625
-0.17907366 0.065430842 -0.8045001
-0.18081304 0.071544513 -0.80200005
-0.17915031 0.07455644 -0.80355561
-0.17829682 0.083841905 -0.80425006
-0.17724267 0.092586502 -0.80533338
-0.27444196 0.035383783 -0.79517651
-0.19212516 0.034576528 -0.79288244
-0.27453893 0.042689629 -0.79527277
-0.19113266 0.044251423 -0.79125005
-0.18805033 0.044530109 -0.79620838
-0.18806399 0.055145487 -0.79609537
-0.18430072 0.064974502 -0.79610711
-0.1830623 0.074311711 -0.79570001
-0.17939949 0.079083122 -0.79700005
-0.18088174 0.080753736 -0.79100001
-0.17832495 0.084781818 -0.79545468
-0.17578708 0.09577556 -0.79355556
-0.17544261 0.1018295 -0.792
-0.17238964 0.11981741 -0.79100001
-0.17498833 0.12552321 -0.79569238
-0.17515233 0.13481258 -0.79430002
-0.17488743 0.14447817 -0.79377776
-0.17572767 0.1550087 -0.79380006
-0.17452826 0.16949908 -0.79300004
-0.2649433 0.035515804 -0.78591675
-0.25635225 0.034288719 -0.78221738
-0.24558128 0.032745034 -0.7825883
-0.23896514 0.031101333 -0.78100002
-0.22238497 0.038680952 -0.78166676
-0.2136537 0.037271783 -0.78144443
-0.20524643 0.035405587 -0.78352791
-0.19691288 0.036068235 -0.78720689
-0.27055553 0.043333646 -0.79000002
-0.26562825 0.045022938 -0.7845456
-0.25849834 0.042041566 -0.78175008
-0.22228979 0.041180596 -0.78133339
-0.21478808 0.04118938 -0.78150004
-0.20445129 0.045166187 -0.78287119
-0.19567274 0.045727901 -0.78627038
-0.27183828 0.055121552 -0.78880006
-0.26732147 0.054887064 -0.78341669
-0.20288438 0.052028351 -0.78228581
-0.19371986 0.054976147 -0.7846573
-0.18913445 0.058600105 -0.79000002
-0.27163151 0.064224042 -0.78820008
-0.26798698 0.062243663 -0.78250003
-0.1922178 0.064610638 -0.78305888
-0.18854778 0.064863794 -0.78756255
-0.27225181 0.070474014 -0.79000002
-0.19136195 0.075264663 -0.78209096
-0.18705924 0.075455837 -0.78639299
-0.18420687 0.084206574 -0.78462517
-0.17868504 0.087412521 -0.78787506
-0.2783305 0.095675997 -0.78800005
-0.18278104 0.094454803 -0.78350013
-0.17759357 0.095341131 -0.78790474
-0.16853331 0.096502319 -0.78100002
-0.27753496 0.10656402 -0.78100002
-0.18176036 0.1032958 -0.7828182
-0.17654338 0.10521585 -0.78683341
-0.18050277 0.11509766 -0.78200006
-0.1758747 0.11478283 -0.78651625
-0.18045662 0.12446686 -0.78180009
-0.1774106 0.12452325 -0.78659105
-0.18053371 0.13316593 -0.78360003
-0.17862937 0.13572788 -0.78806663
-0.17665461 0.14486581 -0.78637511
-0.17593019 0.15521385 -0.7853334
-0.17503183 0.16499063 -0.78563166
-0.17603174 0.17467031 -0.7840001
-0.17787182 0.18269131 -0.78820002
-0.17756221 0.19171029 -0.78633344
-0.25297648 0.036824983 -0.77954555
-0.24444678 0.037441008 -0.77710533
-0.23467876 0.035467073 -0.77719361
-0.22598958 0.034816299 -0.77884865
-0.21581139 0.033161886 -0.77871436
-0.12102973 0.034443505 -0.77320004
-0.11821306 0.030663287 -0.77000004
-0.26193839 0.048196506 -0.77950001
-0.25479636 0.045651879 -0.77734643
-0.24523515 0.044597633 -0.77207154
-0.2350456 0.044451229 -0.77160007
-0.225099 0.045066629 -0.77356416
-0.2147537 0.04597041 -0.77646875
-0.20849492 0.047290146 -0.77837503
-0.1269282 0.043763492 -0.77525008
-0.2625224 0.055921055 -0.77833343
-0.25506446 0.054619152 -0.77314305
-0.24771921 0.052745547 -0.77055556
-0.22230104 0.051722284 -0.77057147
-0.21454936 0.05391885 -0.77159995
-0.20560722 0.055526491 -0.77470279
-0.19805491 0.057403829 -0.77840006
-0.12390845 0.051877096 -0.77200001
-0.26339471 0.064555585 -0.77428573
-0.25742662 0.061328892 -0.77100003
-0.21245283 0.060423218 -0.7700001
-0.20311709 0.062264256 -0.77076924
-0.19674741 0.065501437 -0.77519345
-0.26653391 0.074807726 -0.77340001
-0.20087953 0.070343196 -0.77000004
-0.19539344 0.074979901 -0.77390921
-0.12648043 0.078398317 -0.77333343
-0.024628883 0.071201682 -0.77333343
-0.27224538 0.085618392 -0.77866668
-0.26771712 0.084336191 -0.77271432
-0.19332922 0.083879784 -0.7729001
-0.18814074 0.087191172 -0.77623075
-0.27273047 0.0951434 -0.77450007
-0.19104221 0.094356589 -0.77033341
-0.18719715 0.095013306 -0.77451718
-0.16831753 0.09805356 -0.78000003
-0.27402002 0.10463454 -0.7750001
-0.18428871 0.10434037 -0.77395993
-0.17981032 0.10963643 -0.77900004
-0.18178025 0.11493815 -0.77277786
-0.18167509 0.12464888 -0.77384216
-0.18071392 0.13153103 -0.77333343
-0.17941594 0.13738945 -0.77411109
-0.28225875 0.14906968 -0.77100003
-0.17855774 0.14440259 -0.77514297
-0.28391424 0.1515529 -0.77100003
-0.17680478 0.15505235 -0.77610004
-0.1769976 0.16472459 -0.77525008
-0.17794764 0.17520711 -0.77538466
-0.17671989 0.1847543 -0.77279997
-0.17642187 0.19524978 -0.77481824
-0.11462429 0.023836125 -0.76322228
-0.034015708 0.024254918 -0.76356244
-0.027644627 0.025566639 -0.76600009
-0.12249173 0.038158234 -0.76780003
-0.11645176 0.035401572 -0.76518756
-0.032086179 0.034230057 -0.76226318
-0.027717374 0.033468224 -0.76545459
-0.2410726 0.047960877 -0.76900005
-0.23529348 0.048786473 -0.76900005
-0.1223492 0.044080764 -0.76612496
-0.11758532 0.043714676 -0.7628572
-0.031996898 0.044564202 -0.76215798
-0.028651446 0.04755602 -0.76250005
-0.25015411 0.057867974 -0.76900005
-0.24374568 0.054960039 -0.76875019
-0.2349207 0.054477282 -0.76777768
-0.22524099 0.055607088 -0.767353
-0.21736638 0.05751415 -0.76900011
-0.12057279 0.052563936 -0.76400006
-0.11830968 0.051479209 -0.76000005
-0.03131073 0.052057587 -0.76250005
-0.028160742 0.053938381 -0.76185721
-0.2600612 0.066949472 -0.76900005
-0.2539731 0.065404311 -0.76706678
-0.2448912 0.064989172 -0.76545006
-0.23505278 0.065076388 -0.76509297
-0.22446038 0.064749986 -0.76260519
-0.21548519 0.065227717 -0.76690912
-0.2055625 0.065547839 -0.76870841
-0.12352947 0.06879428 -0.76200002
-0.025343714 0.067115672 -0.7615
-0.26209626 0.075441793 -0.76836371
-0.25544757 0.074999362 -0.76548576
-0.24537465 0.075321525 -0.76184368
-0.23491441 0.07464733 -0.76174986
-0.2254376 0.07537695 -0.76119977
-0.21380839 0.074579477 -0.76265514
-0.20509551 0.074951723 -0.76644677
-0.19896746 0.074379794 -0.76900005
-0.1219333 0.077001095 -0.76225007
-0.025460199 0.073169462 -0.76500005
-0.26304919 0.0858237 -0.76605272
-0.25467759 0.085290693 -0.76184368
-0.24801016 0.081874318 -0.7604
-0.22519636 0.08085265 -0.76000005
-0.21257709 0.084151097 -0.76110536
-0.20450042 0.08529073 -0.76390916
-0.19789699 0.086129107 -0.76826674
-0.12289055 0.085833073 -0.76437503
-0.2716195 0.09997312 -0.76900005
-0.26455072 0.09566547 -0.76564521
-0.25517109 0.094828121 -0.76260006
-0.20316434 0.094225183 -0.76204175
-0.19561209 0.095247529 -0.76687497
-0.16322441 0.0960465 -0.76400006
-0.2716195 0.10988021 -0.76900005
-0.26518437 0.10497034 -0.76520687
-0.25801679 0.10274409 -0.76157153
-0.20153444 0.10043494 -0.76000005
-0.19465233 0.10484593 -0.7638334
-0.18704522 0.10669785 -0.7678889
-0.026166266 0.10665442 -0.76166672
-0.27097771 0.11512382 -0.76440012
-0.26678988 0.11384337 -0.76168746
-0.19283499 0.11382547 -0.76321745
-0.18678038 0.11545325 -0.76764303
-0.026961079 0.11037112 -0.76100004
-0.27007243 0.12001723 -0.76000005
-0.2684406 0.12001723 -0.76000005
-0.19104151 0.12439704 -0.76100004
-0.18638559 0.12529705 -0.76609379
-0.27251258 0.13704959 -0.76512504
-0.19023651 0.13234264 -0.76050007
-0.1851439 0.13512371 -0.76569051
-0.28116047 0.14931415 -0.76800001
-0.27618277 0.14698143 -0.76450002
-0.18307874 0.14451119 -0.76429033
-0.17852756 0.14811689 -0.7675001
-0.28079438 0.15076663 -0.76700002
-0.27651185 0.15141566 -0.76200008
-0.18176651 0.15376382 -0.76109099
-0.17845173 0.15490854 -0.7656315
-0.18049821 0.16587493 -0.76075
-0.17830664 0.16443171 -0.76450002
-0.18032028 0.17142075 -0.76000005
-0.17896226 0.1750664 -0.76524997
-0.1771774 0.1848872 -0.76557148
-0.17747016 0.19520006 -0.76487505
-0.17535535 0.20337413 -0.76539999
-0.11200702 0.025890859 -0.75737506
-0.10672659 0.024983272 -0.75240004
-0.050794788 0.020231463 -0.75100005
-0.0450668 0.024888953 -0.75358057
-0.038738128 0.027251909 -0.75699997
-0.1118127 0.034982238 -0.75618184
-0.10693943 0.033387765 -0.7519334
-0.04150166 0.034725301 -0.75062501
-0.037269283 0.03528969 -0.75476933
-0.027642541 0.039097488 -0.75725007
-0.11346151 0.045458626 -0.75485724
-0.04106484 0.044360314 -0.75000006
-0.037249345 0.045427494 -0.75437498
-0.02740846 0.04344264 -0.75400001
-0.117175 0.055168413 -0.75363636
-0.034409478 0.054955967 -0.75396007
-0.025606016 0.058577292 -0.75590914
-0.22245547 0.069338292 -0.75900006
-0.12141343 0.068523437 -0.75900006
-0.11781386 0.064776756 -0.75333333
-0.032902196 0.065074913 -0.75212502
-0.027925165 0.06461864 -0.75557148
-0.2403823 0.078301698 -0.75900006
-0.23744881 0.078464672 -0.75900006
-0.21660236 0.075823694 -0.75866663
-0.12141343 0.071782857 -0.75900006
-0.11787128 0.073599562 -0.75255567
-0.032129191 0.072278351 -0.75085723
-0.027934777 0.075068206 -0.75331831
-0.24421173 0.085105777 -0.75765395
-0.23496981 0.084773518 -0.75770742
-0.22484717 0.085020445 -0.75790006
-0.2168749 0.085429668 -0.75782609
-0.12093353 0.089351863 -0.75600004
-0.11832237 0.085300379 -0.75345457
-0.028173663 0.08428105 -0.75273341
-0.24455118 0.095157631 -0.75594592
-0.23493345 0.09461762 -0.75513947
-0.225116 0.095150366 -0.75446343
-0.21517538 0.094644397 -0.75438643
-0.20775661 0.095857494 -0.75716674
-0.11997374 0.091061503 -0.75000006
-0.026618605 0.095256865 -0.75133342
-0.25390014 0.10547933 -0.75596005
-0.24530131 0.1051367 -0.75247055
-0.23570672 0.10442855 -0.75059384
-0.22565532 0.10132771 -0.75000006
-0.21321641 0.10405216 -0.75172001
-0.20504244 0.10507242 -0.7555778
-0.19928025 0.10650167 -0.75866675
-0.026740873 0.10336594 -0.755
-0.26266089 0.11620262 -0.75713342
-0.25600731 0.11368877 -0.75270009
-0.24799943 0.11038613 -0.75000006
-0.23454121 0.1110763 -0.75000012
-0.22947998 0.11199652 -0.75000006
-0.21015537 0.11038613 -0.75000006
-0.20337313 0.11406707 -0.7523334
-0.19685401 0.11597091 -0.75688893
-0.027473988 0.11361228 -0.75275004
-0.26452988 0.12462196 -0.75317246
-0.25881156 0.12101477 -0.75100005
-0.20133625 0.123361 -0.75057149
-0.19573931 0.12507048 -0.75415397
-0.26427913 0.13476877 -0.75316668
-0.25706521 0.13369553 -0.75018191
-0.20126791 0.13470042 -0.75088888
-0.19491731 0.13499957 -0.75295663
-0.18934028 0.13770072 -0.75600016
-0.27252695 0.14650598 -0.75775003
-0.26853099 0.14624912 -0.75225002
-0.19406155 0.1441427 -0.75108337
-0.18766236 0.14547125 -0.75503719
-0.27216917 0.15292597 -0.75599998
-0.26806912 0.15145111 -0.75133342
-0.19108516 0.15245917 -0.75100011
-0.18581878 0.15535469 -0.75470006
-0.18338335 0.16452177 -0.75308579
-0.18195549 0.17479409 -0.75248009
-0.17895702 0.17838226 -0.75700003
-0.18064253 0.18232988 -0.7511667
-0.17883177 0.18527544 -0.75420016
-0.18060263 0.19599327 -0.75100005
-0.17868519 0.1954879 -0.75388891
-0.18116841 0.20137294 -0.75000006
-0.17713514 0.20452642 -0.75273347
-0.10141768 0.024850506 -0.74750006
-0.094328687 0.024851 -0.74457163
-0.086727969 0.025238523 -0.74180001
-0.072393291 0.022348661 -0.74100006
-0.063754305 0.023197893 -0.74276197
-0.055336438 0.024988905 -0.74570835
-0.047810514 0.028393174 -0.74757159
-0.10339659 0.03641025 -0.74715
-0.095493965 0.0340776 -0.74379176
-0.087853 0.031658549 -0.74166673
-0.053823594 0.034709625 -0.74275017
-0.045891207 0.035551857 -0.74625009
-0.022412814 0.039291978 -0.74550003
-0.11169796 0.048288964 -0.74849999
-0.1055247 0.044633999 -0.74441379
-0.098965079 0.041985828 -0.74220008
-0.051871978 0.043887265 -0.74200004
-0.045327559 0.045008369 -0.74571872
-0.022757972 0.043473411 -0.74490923
-0.019888265 0.045419049 -0.74100006
-0.11270352 0.055571474 -0.74650007
-0.10761217 0.05465734 -0.74300009
-0.050140973 0.051805876 -0.74133337
-0.044131987 0.054229215 -0.74418193
-0.038188364 0.056394029 -0.74730009
-0.018371282 0.058382951 -0.74400002
-0.11289731 0.064168915 -0.745125
-0.10860371 0.061942782 -0.74200004
-0.041194387 0.064654976 -0.74266672
-0.037395865 0.064657852 -0.74669576
-0.11436799 0.075479291 -0.74492866
-0.034736291 0.075156339 -0.74533337
-0.11461958 0.083238989 -0.74483341
-0.03323289 0.08463186 -0.74471432
-0.029164087 0.088637456 -0.74766672
-0.11778744 0.095168397 -0.74577779
-0.031626545 0.093535036 -0.74266672
-0.028802376 0.094482474 -0.74525011
-0.23158635 0.10782658 -0.74900001
-0.22458935 0.10590219 -0.7480644
-0.21695539 0.10636108 -0.74745458
-0.11858737 0.10274273 -0.74133337
-0.031659115 0.10623009 -0.74344444
-0.029302584 0.10473059 -0.74666673
-0.25250259 0.11715829 -0.74783337
-0.24470107 0.11492711 -0.74657518
-0.2353173 0.11568356 -0.74769223
-0.22502552 0.11505343 -0.74663889
-0.21451244 0.11509682 -0.74468303
-0.20748547 0.11611966 -0.7471053
-0.031179216 0.1127976 -0.74466676
-0.028596874 0.11459447 -0.74683344
-0.26133877 0.12792957 -0.74900001
-0.25473091 0.12556168 -0.74787092
-0.24492928 0.12476533 -0.7452001
-0.23484333 0.12388206 -0.74403352
-0.22496378 0.12531781 -0.74262798
-0.2147475 0.1248391 -0.74171048
-0.20515807 0.12491801 -0.74397808
-0.2621429 0.13918725 -0.74900001
-0.25409111 0.13616177 -0.7479524
-0.24678218 0.1344002 -0.74477273
-0.21208847 0.13197277 -0.74100012
-0.20459425 0.13443092 -0.74463338
-0.26324242 0.14389323 -0.74755001
-0.25569239 0.14371981 -0.74434489
-0.24869476 0.14153984 -0.74166673
-0.21819353 0.14442194 -0.74120009
-0.20105466 0.14464258 -0.74400002
-0.19747885 0.14663175 -0.74726313
-0.26463929 0.15408823 -0.74494743
-0.25853822 0.15206908 -0.74280006
-0.19480309 0.15472786 -0.74537796
-0.18884188 0.15918335 -0.74849999
-0.27141818 0.16703933 -0.74650002
-0.26765719 0.1648633 -0.7435714
-0.19102012 0.16462341 -0.74260008
-0.18799733 0.1658141 -0.74580008
-0.26845559 0.1713438 -0.74200004
-0.19106704 0.17415053 -0.741889
-0.18702327 0.17548729 -0.7460714
-0.19013181 0.18065926 -0.74100006
-0.18445751 0.18458219 -0.7457059
-0.18392122 0.1952697 -0.74610341
-0.22155429 0.20545475 -0.74271435
-0.2186361 0.20549329 -0.74285722
-0.18282157 0.20425504 -0.7460832
-0.081034608 0.019935129 -0.74000001
-0.081722841 0.025538754 -0.73988223
-0.074883536 0.025858505 -0.73906255
-0.06647034 0.026901731 -0.73847371
-0.093115836 0.037602641 -0.73750007
-0.084583491 0.035167165 -0.73714715
-0.07472612 0.035031721 -0.73623097
-0.064763837 0.034822751 -0.73569447
-0.058543004 0.036404438 -0.73889995
-0.10142253 0.0481649 -0.73920006
-0.094352156 0.045567378 -0.73581094
-0.084926561 0.044891085 -0.73245251
-0.074991673 0.044776335 -0.73331898
-0.064777873 0.045105487 -0.73299992
-0.056775246 0.045652945 -0.73772424
-0.10243111 0.055489022 -0.73845005
-0.094569348 0.055145934 -0.73314297
-0.086065814 0.051607661 -0.73100007
-0.074654065 0.053529546 -0.73127282
-0.065181136 0.052352805 -0.73150003
-0.054919586 0.054865181 -0.73456764
-0.04763199 0.057953391 -0.7385385
-0.11042952 0.068397 -0.74000001
-0.10440525 0.064997166 -0.73633337
-0.095739387 0.064793766 -0.73221231
-0.052446779 0.064206511 -0.73187506
-0.046218887 0.065131113 -0.73657584
-0.11078507 0.07542944 -0.73883337
-0.10505769 0.074643008 -0.73327792
-0.09881068 0.071740679 -0.73128575
-0.051353481 0.072155647 -0.73140001
-0.044635311 0.074651882 -0.73395663
-0.038265035 0.076340728 -0.73744446
-0.11162508 0.085091725 -0.7374
-0.10702518 0.083682753 -0.73299998
-0.041733552 0.083934665 -0.73175001
-0.037154045 0.085541353 -0.73638898
-0.11253355 0.095337205 -0.73592871
-0.10894923 0.095926814 -0.7318334
-0.040836699 0.091171302 -0.73150003
-0.035387963 0.095039532 -0.73496431
-0.11389128 0.10392274 -0.73436373
-0.10923569 0.10066298 -0.73199999
-0.03474139 0.10399505 -0.73390001
-0.11674143 0.11445568 -0.73225003
-0.032270119 0.11301192 -0.73312509
-0.027749632 0.11899893 -0.7385
-0.24039517 0.1293951 -0.73900002
-0.2346293 0.1284848 -0.73833334
-0.22959808 0.12957019 -0.74000001
-0.21688676 0.12718682 -0.74000001
-0.026290799 0.12436393 -0.73222226
-0.24198274 0.13574243 -0.73899996
-0.23489191 0.13512164 -0.73521942
-0.22517046 0.13516231 -0.73658335
-0.21556006 0.13543491 -0.73961759
-0.20683919 0.13702141 -0.73857141
-0.12264162 0.13379233 -0.73700005
-0.026212608 0.13441636 -0.73250002
-0.25221983 0.14752877 -0.73799998
-0.24434498 0.14506607 -0.73505718
-0.23487934 0.14504518 -0.73356742
-0.22454287 0.14487146 -0.73545659
-0.21506725 0.1445656 -0.73700011
-0.20559125 0.1447778 -0.73654777
-0.03217658 0.14996859 -0.73100001
-0.26219991 0.15749805 -0.73933339
-0.25489175 0.15567315 -0.73655558
-0.24731576 0.15410674 -0.7323637
-0.23304935 0.15213008 -0.73243755
-0.22533613 0.15332164 -0.73255187
-0.21451546 0.15501744 -0.73297572
-0.20487948 0.15507759 -0.7372328
-0.19728965 0.15784012 -0.7392
-0.26241493 0.16486984 -0.73750013
-0.25490138 0.16419376 -0.73310012
-0.24837016 0.16155231 -0.73133337
-0.21293125 0.16114758 -0.731875
-0.20443292 0.16396169 -0.73395026
-0.19556634 0.16528696 -0.73666686
-0.26306123 0.17567679 -0.73225003
-0.25732759 0.17581584 -0.73171437
-0.20259488 0.1750454 -0.73166674
-0.19530286 0.17531069 -0.73565865
-0.18987522 0.17882653 -0.74000001
-0.26312014 0.18492292 -0.73411548
-0.25746018 0.18402678 -0.73224998
-0.20180972 0.1830363 -0.73142868
-0.19492044 0.18500768 -0.73468894
-0.18776934 0.18663014 -0.73870587
-0.26300365 0.19175625 -0.73399997
-0.22191814 0.19759756 -0.73300004
-0.21431047 0.19593246 -0.73336011
-0.20844607 0.1949089 -0.73144448
-0.19248717 0.19469938 -0.73375005
-0.18799378 0.19468273 -0.73776478
-0.18620916 0.2021471 -0.73441178
0.0023264708 0.04375742 -0.72233343
-0.090127923 0.055716902 -0.73000002
-0.084467627 0.05520406 -0.72951508
-0.076333746 0.057267226 -0.72978568
-0.065013923 0.056245573 -0.72960705
-0.058779083 0.05885179 -0.73000002
-0.09099324 0.066318981 -0.7294001
-0.08448191 0.065003537 -0.7275117
-0.074978821 0.064893082 -0.72750014
-0.064869665 0.064938359 -0.72799999
-0.056581359 0.065545969 -0.72915989
-0.10110001 0.079228543 -0.73000002
-0.094533905 0.075730607 -0.72657573
-0.086227432 0.07321129 -0.72243476
-0.074508443 0.073388629 -0.72243345
-0.064957038 0.074973494 -0.72319061
-0.05567307 0.075538673 -0.72761118
-0.048851948 0.078706071 -0.73000002
-0.10305619 0.086424738 -0.72695649
-0.096047141 0.084336884 -0.72286218
-0.063842326 0.082871653 -0.72158825
-0.054886173 0.084381089 -0.72375566
-0.046506543 0.085788354 -0.72850001
-0.10449385 0.094783597 -0.72588462
-0.098104797 0.093011968 -0.72141671
-0.050623443 0.093423299 -0.72100002
-0.045243248 0.095050953 -0.72437853
-0.039354607 0.096991576 -0.72950006
-0.11158168 0.10800223 -0.72850007
-0.10602709 0.10493731 -0.72437048
-0.043781362 0.10451484 -0.7243104
-0.03856137 0.10563476 -0.72906679
-0.11368787 0.11595184 -0.72663641
-0.10846285 0.11298851 -0.72162509
-0.04231862 0.11389654 -0.72276932
-0.035988022 0.11528382 -0.72600001
-0.11562943 0.12347336 -0.7245295
-0.041025113 0.12005092 -0.72100002
-0.033911753 0.12427124 -0.72317159
-0.027603546 0.12591857 -0.72871435
-0.12131037 0.13703421 -0.72900003
-0.11852431 0.13528831 -0.72500008
-0.03313724 0.13477053 -0.72335488
-0.028221378 0.13662957 -0.72836375
-0.24060237 0.14976344 -0.73000002
-0.23798996 0.14924096 -0.73000002
-0.12097756 0.14134297 -0.72700006
-0.11711457 0.14283319 -0.72590911
-0.056898151 0.14738396 -0.72600001
-0.032773893 0.14436018 -0.72536367
-0.026915031 0.14430073 -0.72494745
-0.24277598 0.15580156 -0.72892314
-0.23567717 0.15588775 -0.72730559
-0.22461584 0.15794627 -0.72966671
-0.21859784 0.15787052 -0.72980005
-0.25109643 0.16773075 -0.72975004
-0.24468018 0.1655159 -0.7276001
-0.23473911 0.164974 -0.72454566
-0.22517642 0.16486271 -0.7254709
-0.21560073 0.16589253 -0.72927898
-0.20754318 0.16751704 -0.72950006
-0.26140428 0.17147242 -0.72900003
-0.25355545 0.17382134 -0.72952634
-0.24444437 0.17518009 -0.72539049
-0.23478669 0.17536902 -0.72311437
-0.22474371 0.17500612 -0.72350007
-0.21533071 0.17543383 -0.72642225
-0.20755769 0.17494427 -0.72892302
-0.25292113 0.18509732 -0.72807145
-0.24499677 0.1844992 -0.72276324
-0.23506276 0.18515013 -0.72300005
-0.22456168 0.18479899 -0.72203851
-0.214994 0.18474142 -0.72452277
-0.20596847 0.1855427 -0.72912496
-0.19925168 0.18875429 -0.72925007
-0.25430655 0.1951212 -0.72611123
-0.24620503 0.19638672 -0.72342324
-0.23392527 0.1954737 -0.72250009
-0.22492056 0.19479784 -0.72385734
-0.21695192 0.19153273 -0.72850007
-0.20352785 0.19477443 -0.72879988
-0.19733158 0.19492909 -0.72866654
0.0083333431 0.0057253134 -0.71399999
0.0060584056 0.014812822 -0.71320856
0.0069165123 0.024086338 -0.71605879
0.078843415 0.022269648 -0.71300006
0.007502466 0.032065518 -0.713
0.082097471 0.034968287 -0.71261549
0.003258884 0.045900866 -0.71450001
0.082438871 0.040526927 -0.71100003
-0.0015287929 0.055871855 -0.71200001
0.0013769873 0.05346901 -0.71260005
-0.00076332287 0.061899967 -0.71100003
-0.083857149 0.077504538 -0.71936852
-0.076056257 0.07799834 -0.71942109
-0.068795681 0.079689182 -0.72000003
-0.091271102 0.086002968 -0.71990919
-0.08470656 0.084774539 -0.71724999
-0.074930131 0.085172415 -0.71759993
-0.065752916 0.086841419 -0.7197001
-0.057973891 0.088578515 -0.72000003
-0.094052918 0.095790379 -0.71918899
-0.084737234 0.094815999 -0.71749997
-0.074776366 0.09461125 -0.71482933
-0.065234646 0.094920315 -0.7170639
-0.055339236 0.095301867 -0.71956807
-0.10198104 0.10688038 -0.719625
-0.095378824 0.10543978 -0.71642852
-0.085066743 0.10505501 -0.7138164
-0.074902028 0.1047764 -0.71190482
-0.06509418 0.10498995 -0.71336734
-0.054864395 0.10515536 -0.71586967
-0.048064075 0.10643188 -0.71826673
-0.10399328 0.11537978 -0.7171765
-0.094700053 0.11524702 -0.71266657
-0.08785329 0.11356933 -0.71157151
-0.072820999 0.11105796 -0.71100003
-0.064592525 0.11262021 -0.71147829
-0.054825079 0.11490665 -0.71258336
-0.046774369 0.11549049 -0.71634287
-0.11230711 0.12588629 -0.71794122
-0.10512172 0.12489698 -0.71442503
-0.097319327 0.12211773 -0.71172732
-0.053194858 0.12164626 -0.71122223
-0.044183642 0.12466667 -0.71379489
-0.03834651 0.12592095 -0.7191667
-0.11355658 0.1346857 -0.71766675
-0.1074121 0.13469787 -0.71322733
-0.051905952 0.1397589 -0.71100003
-0.043955341 0.13492389 -0.71368754
-0.03827149 0.13542394 -0.71837503
-0.11104066 0.14195538 -0.71825004
-0.10644616 0.141058 -0.71500009
-0.054170065 0.14343588 -0.71618193
-0.045051079 0.14198536 -0.71490008
-0.038274042 0.14212845 -0.7178334
-0.022869483 0.1472301 -0.71466678
-0.022167496 0.15065701 -0.71200001
-0.2295766 0.16935547 -0.72000003
-0.2417767 0.18854891 -0.71950006
-0.23624618 0.18811105 -0.71960002
-0.22547868 0.18560106 -0.71975011
-0.24184838 0.19291064 -0.71971434
-0.23765516 0.19357133 -0.71950001
-0.22482817 0.19790775 -0.71827781
0.0099092405 0.0099799577 -0.71000004
0.014090911 0.0048194611 -0.70316142
0.022795906 0.0013222428 -0.70000005
0.067809492 0.0045341942 -0.70126671
0.073288389 0.0055197873 -0.70524138
0.11063028 0.0030801678 -0.70100003
0.0093168868 0.016612448 -0.70850009
0.013474218 0.014990555 -0.70260864
0.069890745 0.011342421 -0.70000005
0.073830321 0.015137866 -0.70170844
0.0098673701 0.025121119 -0.70700002
0.011734959 0.022787098 -0.70200008
0.076299004 0.025173593 -0.70430005
0.0085455505 0.035770759 -0.70550001
0.011672613 0.032076288 -0.70150006
0.077379979 0.034694124 -0.7027778
0.080544353 0.036404602 -0.71000004
0.0066099712 0.045586672 -0.70311767
0.078578569 0.044958029 -0.7032308
0.082023479 0.045636054 -0.70741665
-0.0022856742 0.058137991 -0.70980006
0.0035420014 0.055266418 -0.70531577
0.077405877 0.050421119 -0.70000005
-0.0026651886 0.060626537 -0.70950007
0.0024806079 0.061985064 -0.70457155
0.16459842 0.077560827 -0.70466685
0.17369743 0.077746034 -0.70244449
0.16526999 0.085076228 -0.7049737
0.17408444 0.085451789 -0.70211369
0.0045273313 0.098940186 -0.70300007
0.17587423 0.091883041 -0.70254552
0.0061795874 0.10272149 -0.70200008
-0.08388605 0.11562625 -0.70831025
-0.075365804 0.11529644 -0.70711625
-0.064969823 0.11742669 -0.70876932
-0.057910278 0.11893944 -0.70975006
-0.10130776 0.12803784 -0.70950007
-0.094350219 0.12608807 -0.7071389
-0.084956802 0.12503844 -0.70452291
-0.074824095 0.12452137 -0.70310414
-0.065012351 0.12480599 -0.70418185
-0.055899497 0.12607847 -0.70750004
-0.048868652 0.12618062 -0.71000004
-0.10230427 0.13422801 -0.70885718
-0.095520273 0.13396168 -0.70513791
-0.085390888 0.13272071 -0.70248145
-0.074843831 0.13229229 -0.70147634
-0.06492915 0.13346612 -0.70330024
-0.055343375 0.13453342 -0.70526838
-0.048880577 0.13407513 -0.70920002
-0.057088181 0.14088812 -0.70900005
0.1087049 -0.0012747735 -0.69640011
0.11053581 -0.00067302695 -0.69100004
0.017782079 0.0068131429 -0.69809091
0.024792472 0.0055543673 -0.69626081
0.03460012 0.0048298752 -0.69313645
0.045796651 0.004375109 -0.6921429
0.055009622 0.0051269466 -0.69540882
0.063127644 0.0059772627 -0.69682759
0.10881378 0.00082006067 -0.69900006
0.11096042 0.0019346856 -0.69600004
0.017794847 0.015332284 -0.69738466
0.02354468 0.014328615 -0.69228137
0.030371878 0.011180387 -0.69000006
0.049038246 0.013095423 -0.69057149
0.05510468 0.013469419 -0.69362509
0.065200396 0.014735232 -0.6953783
0.077284567 0.013075461 -0.69620007
0.01607806 0.024731969 -0.69622564
0.022638878 0.024652833 -0.69106895
0.067577012 0.024417721 -0.69304544
0.072024964 0.025431009 -0.69778574
0.0097557176 0.039092489 -0.69900006
0.015240183 0.035421632 -0.69368416
0.020509338 0.032192215 -0.69050002
0.068078257 0.03323793 -0.69175005
0.072643712 0.035458695 -0.6950435
0.0095353248 0.045602396 -0.6985715
0.013698977 0.044475269 -0.69267869
0.074043609 0.04461173 -0.69380003
0.10905211 0.046805441 -0.69100004
0.0078626508 0.055008303 -0.69360876
0.011114347 0.05489862 -0.69016671
0.075787336 0.054140151 -0.69253331
0.080861762 0.058675058 -0.69100004
0.0070722247 0.063630685 -0.69405001
0.011111663 0.060071699 -0.69000006
0.079221591 0.064076856 -0.69125003
0.081982143 0.065633155 -0.69525003
0.079378068 0.070544675 -0.69100004
0.081008039 0.072896764 -0.69225007
0.17865214 0.077620395 -0.69860005
0.18550567 0.077696741 -0.69603717
0.19129065 0.075658098 -0.69440001
0.17832308 0.083089091 -0.6979
0.1846973 0.084977917 -0.69411314
0.0056119971 0.094961442 -0.69478947
0.079454653 0.09437488 -0.69166672
0.080744743 0.097110569 -0.69000006
0.18351479 0.091684371 -0.69553852
0.0081839804 0.10199535 -0.69300002
0.013472335 0.11772092 -0.69171435
0.012972732 0.1220147 -0.69050002
0.10933606 -0.0035976977 -0.68350005
0.11088472 -0.00066620903 -0.68400002
0.037931886 0.0090709524 -0.68740004
0.042933069 0.0084319245 -0.68750012
0.11104684 0.00080363598 -0.68500006
0.027500449 0.0167758 -0.68860012
0.034721013 0.015631109 -0.68635428
0.044282906 0.01594666 -0.68580967
0.055281173 0.018491961 -0.68652385
0.062090568 0.018547751 -0.68850005
0.027053192 0.024311217 -0.68850011
0.034570657 0.025079662 -0.68526208
0.044459708 0.024321653 -0.68190002
0.055526227 0.024766488 -0.68264866
0.062634073 0.024632139 -0.68715
0.019972004 0.037793525 -0.68900001
0.024977954 0.034469638 -0.68500012
0.034212913 0.031497929 -0.68245006
0.040211335 0.03004355 -0.68100005
0.056521289 0.034822714 -0.68260604
0.063795552 0.035403699 -0.68666673
0.018008612 0.046305493 -0.68676198
0.022547616 0.043515645 -0.68306249
0.046060257 0.040279165 -0.68100005
0.056205444 0.042369548 -0.68150002
0.06519495 0.044204243 -0.6839723
0.071046248 0.045264639 -0.68790001
0.016090062 0.055147309 -0.68539017
0.021202341 0.050514776 -0.68100005
0.069036528 0.051051639 -0.68166673
0.072882108 0.056841839 -0.68568754
0.00916785 0.067407727 -0.68714297
0.013225522 0.06473802 -0.68457693
0.074453071 0.065458223 -0.6838668
0.0088250684 0.075090438 -0.68514287
0.011888674 0.072683662 -0.68150008
0.076309383 0.074573666 -0.68414807
0.080218144 0.076605082 -0.68550003
0.19270772 0.078805037 -0.68544453
0.0069917301 0.08527261 -0.68384218
0.075785413 0.086686276 -0.68180007
0.11771186 0.083758257 -0.68383336
0.18933557 0.084518597 -0.68800008
0.19295423 0.085106902 -0.68541026
0.0080886995 0.091290973 -0.68525004
0.075888641 0.093779057 -0.68371427
0.08033517 0.098828509 -0.68650007
0.18755126 0.091755435 -0.68688893
0.19231479 0.090699807 -0.68633336
0.0095812585 0.10325278 -0.68650007
0.01366144 0.10667365 -0.68166673
0.06772913 0.10838199 -0.68322229
0.073793843 0.10688739 -0.68511117
0.016065812 0.11456692 -0.68418759
0.066157654 0.11459295 -0.68470001
0.07168185 0.11165576 -0.68833339
0.016094383 0.12466788 -0.68291306
0.065069251 0.12070183 -0.68100005
0.1089014 -0.0069957753 -0.67512506
0.11086407 -0.0040209582 -0.67275
0.10885832 0.0087173376 -0.67150003
0.11128571 0.0015227315 -0.67750001
0.10828308 0.015251858 -0.67346162
0.045074634 0.027629919 -0.67961115
0.050779451 0.02749013 -0.67985713
0.10765643 0.021020297 -0.67300004
0.028851673 0.037460495 -0.67914283
0.035122555 0.036354098 -0.67872006
0.04441813 0.035019904 -0.67826188
0.051586874 0.034250878 -0.67949998
0.027001904 0.045565207 -0.67686492
0.034844968 0.044730876 -0.6767391
0.044649124 0.04545803 -0.67804259
0.053466037 0.046507403 -0.67821431
0.062827587 0.048325479 -0.6785
0.019682135 0.059114031 -0.67900002
0.025248634 0.054893836 -0.67479557
0.035427015 0.054941837 -0.67527902
0.044269837 0.054327443 -0.67353487
0.055919822 0.054259017 -0.67359471
0.064572349 0.054631956 -0.67643172
0.017709203 0.065520085 -0.67643481
0.024875766 0.064014643 -0.67231131
0.03536972 0.062862806 -0.67234296
0.042739104 0.062888727 -0.67150003
0.057547636 0.064966574 -0.67170012
0.065229297 0.064778984 -0.67588371
0.070814028 0.06358134 -0.68000001
0.015899481 0.075322509 -0.67578053
0.021556029 0.072587237 -0.67177778
0.059791476 0.071384378 -0.671
0.065730013 0.074513853 -0.67397231
0.072162256 0.076691724 -0.67893755
0.11324298 0.078712016 -0.67700005
0.19780135 0.077809684 -0.67445463
0.20113449 0.078286536 -0.67150003
0.0094882157 0.084731951 -0.67983335
0.014906105 0.084616981 -0.67413056
0.066770576 0.083948366 -0.67354155
0.073323794 0.083903715 -0.67852187
0.11459427 0.084756844 -0.67938894
0.19743177 0.083537929 -0.67552388
0.20106618 0.081395566 -0.671875
0.015458521 0.094941981 -0.67274356
0.02264509 0.096721604 -0.67114288
0.048396382 0.096794121 -0.671
0.052596156 0.097334146 -0.67111111
0.068351209 0.093690515 -0.67488891
0.072748207 0.097008675 -0.67690009
0.016440412 0.10404477 -0.67541933
0.023531172 0.10561471 -0.67243999
0.035725735 0.10615685 -0.67137486
0.045388673 0.10508912 -0.67264283
0.052587684 0.10019954 -0.671
0.067060865 0.1029736 -0.67309999
0.073735207 0.10243372 -0.67743748
0.018975465 0.11521341 -0.67784619
0.024584292 0.11400667 -0.67260528
0.034758296 0.11226588 -0.67099988
0.045076597 0.11101303 -0.67138469
0.065395266 0.11846107 -0.67933339
0.01627413 0.125935 -0.67873335
0.022212766 0.12202656 -0.67483342
0.038286921 0.12347093 -0.67107135
0.041061617 0.12325168 -0.671
0.059880588 0.12343537 -0.67200005
0.063575327 0.12427787 -0.67628014
0.1137999 -0.005480953 -0.66555172
0.19843979 -0.0084706694 -0.66250002
0.10988951 0.007248953 -0.66900003
0.11180247 0.0048381663 -0.66375011
0.19961092 0.0078791371 -0.66166675
0.20231777 0.0088620959 -0.66433334
0.26365852 0.0043510781 -0.66375005
0.10950463 0.015654774 -0.66775006
0.11080111 0.01358767 -0.66300005
0.19940977 0.010710485 -0.66100001
0.20234081 0.01289054 -0.66362506
0.10825718 0.024786672 -0.66506249
0.1085282 0.034145571 -0.66420001
0.10963593 0.045548584 -0.66400003
0.11016113 0.044130389 -0.66200006
0.048270971 0.057744633 -0.66927284
0.052315585 0.057736713 -0.66918194
0.027859556 0.068640098 -0.6692223
0.035193581 0.068297349 -0.66900003
0.046172652 0.066349745 -0.66908342
0.052814722 0.06595467 -0.66952384
0.10704637 0.06286937 -0.66474998
0.025734525 0.07584174 -0.66857141
0.035083774 0.075248763 -0.66695917
0.044964712 0.075006455 -0.66483676
0.054888166 0.075112462 -0.66500008
0.061080143 0.076234691 -0.6693334
0.1087397 0.074691214 -0.66200006
0.20344116 0.076775476 -0.66629416
0.019127732 0.087651305 -0.66980004
0.025117436 0.085473895 -0.66851014
0.035042826 0.08518251 -0.66624475
0.044825401 0.084737971 -0.66275519
0.054846976 0.084827237 -0.66346931
0.062421057 0.085934587 -0.66680956
0.018701948 0.091418549 -0.67000002
0.026488885 0.094357617 -0.66937929
0.03508731 0.094989643 -0.66537505
0.043830112 0.094201177 -0.66590911
0.056100897 0.094492421 -0.66711122
0.062982999 0.095336281 -0.66610718
0.026904879 0.10352752 -0.66943479
0.033672385 0.10212898 -0.66990918
0.047618032 0.10350288 -0.67000002
0.054653984 0.10468359 -0.66735566
0.062595099 0.10236902 -0.66844451
0.027566358 0.11771528 -0.66821438
0.035197403 0.11589754 -0.66902709
0.045311667 0.11573891 -0.66737509
0.052598912 0.11392997 -0.66290921
0.028360615 0.12135716 -0.66380006
0.03317618 0.12212507 -0.66607696
0.043033801 0.12264098 -0.6665715
0.054642536 0.12141485 -0.66100001
0.11887172 -0.01479216 -0.65907139
0.12440605 -0.015022704 -0.65487504
0.18810241 -0.015201812 -0.65230006
0.19243546 -0.014587242 -0.65683347
0.25900877 -0.01581737 -0.65128577
0.26069248 -0.016010031 -0.65100002
0.11781028 -0.0045763873 -0.6584782
0.12274466 -0.0055509657 -0.65381247
0.19489908 -0.004721697 -0.65490001
0.25969297 -0.0034349654 -0.65200001
0.26119009 -0.0013375072 -0.65400004
0.11658265 0.0052168788 -0.6569488
0.12085348 0.0019671207 -0.65285718
0.19698149 0.0024090158 -0.65450001
0.26271957 0.0027831129 -0.65657151
0.10982832 0.019197119 -0.66000003
0.11510585 0.015042344 -0.65623921
0.19850475 0.013483986 -0.65799999
0.27746624 0.011946266 -0.65100002
0.10982834 0.024865679 -0.66000009
0.1136438 0.024074085 -0.65473694
0.10952638 0.034745589 -0.65925002
0.11170757 0.034491803 -0.6544286
0.10918792 0.047022954 -0.65616667
0.11102798 0.042165648 -0.65514296
0.10800626 0.055406071 -0.65585005
0.10807785 0.064439535 -0.65513343
0.10878675 0.072280861 -0.65516675
0.11040269 0.07390143 -0.65500003
0.20368373 0.073299445 -0.65800011
0.047474176 0.11934166 -0.66000003
0.053914215 0.11708163 -0.65900004
0.045987252 0.12104748 -0.65900004
0.12847659 -0.01266192 -0.64950007
0.13480775 -0.014446319 -0.64685458
0.14480221 -0.014961896 -0.64290917
0.15529744 -0.016216906 -0.64104652
0.1639255 -0.015404072 -0.6408478
0.17544557 -0.014807288 -0.64453655
0.18344663 -0.014107385 -0.64846432
0.25929385 -0.011088061 -0.64925003
0.26227516 -0.015099959 -0.64574373
0.29453662 -0.013388902 -0.64250004
0.12742905 -0.0040863692 -0.64770967
0.13503124 -0.0047202576 -0.64303786
0.14197096 -0.0072986521 -0.64123082
0.15871963 -0.0088685295 -0.64000005
0.16174287 -0.0085936906 -0.64000005
0.17698328 -0.0057004802 -0.64184004
0.18492194 -0.0047867741 -0.64476198
0.19098504 -0.0041209958 -0.64925003
0.25887221 -0.0064697028 -0.64749998
0.26125261 -0.0047196182 -0.64359254
0.29751343 -0.0061201374 -0.64000005
0.11932959 0.0091365809 -0.65000004
0.12516332 0.0051561911 -0.64594239
0.13383324 0.0042459415 -0.6417073
0.17933257 0.0014379404 -0.64000005
0.18493858 0.0048864433 -0.64207149
0.19218409 0.0050734673 -0.64649999
0.25984541 0.0090241302 -0.64200002
0.261493 0.0037102513 -0.6436429
0.11927714 0.014711248 -0.64971435
0.12441405 0.014547042 -0.6435613
0.13065007 0.010378315 -0.64050007
0.18775152 0.014081786 -0.64122742
0.19329417 0.015415317 -0.64531589
0.25903592 0.010370214 -0.64000005
0.26949483 0.0131596 -0.64200002
0.27664357 0.013588988 -0.64730769
0.28199694 0.013348862 -0.64509094
0.1180286 0.026440052 -0.64788461
0.12245543 0.023678586 -0.64323342
0.18924718 0.021395728 -0.64100003
0.1943986 0.024715187 -0.64286107
0.11632003 0.035288177 -0.64624459
0.12112476 0.033500388 -0.6414445
0.19695513 0.034703959 -0.64100009
0.10939137 0.048837863 -0.64900005
0.11385112 0.044882733 -0.6427561
0.19848907 0.044488993 -0.64158332
0.26389143 0.042938009 -0.64066672
0.28052276 0.046243366 -0.64200002
0.10944756 0.054441325 -0.64933342
0.11301683 0.054478083 -0.64364105
0.19857131 0.050221894 -0.64000005
0.10930945 0.065838791 -0.64770007
0.11158013 0.064270929 -0.64313048
0.10905425 0.070220366 -0.64700001
0.11105167 0.070986658 -0.64450002
0.14852428 -0.011255758 -0.63900006
0.1528779 -0.011282144 -0.63900006
0.16731696 -0.012336004 -0.63892311
0.17082007 -0.010226721 -0.63900006
0.26620904 -0.014786752 -0.63463789
0.27219388 -0.015335066 -0.63090003
0.28529465 -0.015624711 -0.6317001
0.29234529 -0.012168472 -0.63814288
0.13926294 -0.00062237954 -0.63900006
0.14563131 -0.0038969046 -0.63773173
0.1548149 -0.0045983959 -0.63747066
0.16500308 -0.0045452006 -0.6366666
0.1725374 -0.0032320346 -0.63785714
0.26492193 -0.0051518939 -0.63335288
0.27129373 -0.0081995251 -0.63080007
0.28762028 -0.0056492677 -0.63100004
0.29357424 -0.0053703799 -0.63571435
0.13772798 0.0067423768 -0.63824999
0.14480118 0.0048345313 -0.63537496
0.15503037 0.0047425935 -0.63299996
0.16551921 0.0048308098 -0.63444912
0.17480974 0.0050171185 -0.63665003
0.18042441 0.0089819618 -0.63900006
0.26245537 0.0052442458 -0.63380557
0.29143324 0.0018233218 -0.63100004
0.12891378 0.017499523 -0.63833338
0.1349718 0.015121029 -0.634619
0.14532724 0.015000398 -0.63256234
0.15446694 0.013279663 -0.63097143
0.16523026 0.014613823 -0.63150978
0.174657 0.015078305 -0.63328308
0.18267916 0.015537633 -0.63711113
0.25756097 0.01704088 -0.63535005
0.2632615 0.013573819 -0.63615787
0.27833802 0.010321603 -0.63700002
0.28344357 0.013172523 -0.63314289
0.12664272 0.026157426 -0.63562155
0.13460724 0.024991261 -0.63153857
0.14280529 0.022476269 -0.6304118
0.17658243 0.024627915 -0.63107413
0.18444137 0.02542918 -0.6351282
0.19094346 0.028190646 -0.63900006
0.20069057 0.029516429 -0.63800001
0.25447738 0.024275161 -0.63053852
0.12524894 0.035023998 -0.63346291
0.13282786 0.033825982 -0.63040757
0.17878506 0.03094995 -0.63000005
0.18573909 0.03465344 -0.63182056
0.19255997 0.034896795 -0.63627774
0.25830796 0.034040574 -0.63292861
0.2616213 0.037410736 -0.63246155
0.11847716 0.045592792 -0.63679999
0.12477355 0.044770733 -0.63204765
0.13076334 0.043575376 -0.63000011
0.18874246 0.044710577 -0.63012511
0.19289947 0.045254428 -0.63388896
0.26516116 0.042981371 -0.63349998
0.2721428 0.046310026 -0.6321429
0.11730406 0.05566797 -0.63553584
0.12254681 0.054368515 -0.63131249
0.19510157 0.054408513 -0.63418198
0.11616526 0.064180456 -0.63376921
0.12145503 0.061636146 -0.6302501
0.19636348 0.064546704 -0.63271439
0.20229934 0.069541141 -0.63450003
0.28699759 -0.022221869 -0.62900001
0.2765224 -0.014095183 -0.62789476
0.2810888 -0.014287231 -0.62900001
0.26777369 -0.0016238827 -0.62800008
0.27508143 -0.0044956678 -0.62676948
0.28305835 -0.0039270855 -0.62762505
0.26674852 0.0039513055 -0.62586844
0.27491781 0.0044746958 -0.62400001
0.28456211 0.0050401627 -0.62523264
0.29035524 0.0081471726 -0.62750006
0.15580557 0.017788993 -0.62849998
0.16112383 0.01856555 -0.62900001
0.25824279 0.019514831 -0.62480009
0.26245353 0.017380746 -0.62311119
0.28612223 0.012827979 -0.62600005
0.29206476 0.014251387 -0.62593746
0.13978471 0.028424762 -0.62900001
0.14561036 0.025986867 -0.62614286
0.15476106 0.024745625 -0.62488234
0.16507113 0.024985857 -0.6275714
0.17216621 0.026218349 -0.62833333
0.25722289 0.024812737 -0.62575674
0.26167172 0.025419625 -0.62226087
0.13659187 0.036134429 -0.62759459
0.14473139 0.034903876 -0.62414074
0.15484431 0.034857795 -0.62198424
0.16490686 0.034712069 -0.62222797
0.17455828 0.035422131 -0.62493753
0.18170123 0.037320178 -0.62870008
0.25855225 0.030811353 -0.62716669
0.2634851 0.035047628 -0.6237334
0.27439275 0.039451521 -0.62185717
0.12898009 0.049358703 -0.62900001
0.13526267 0.045396268 -0.62603778
0.14383811 0.043921594 -0.62246346
0.15249228 0.041185938 -0.62116671
0.16574155 0.041263893 -0.62100011
0.17556687 0.044032484 -0.62300009
0.18381314 0.045170013 -0.62714297
0.26718944 0.042758908 -0.62652946
0.27455452 0.042088799 -0.62447369
0.28024685 0.040861715 -0.62300003
0.12743686 0.055715028 -0.62674284
0.13422327 0.054176252 -0.62262738
0.14067364 0.050064333 -0.62100005
0.17865297 0.051604982 -0.62150002
0.18485826 0.054977614 -0.62384778
0.19102651 0.056999177 -0.62762499
0.11943105 0.066187724 -0.62849998
0.1252185 0.063242741 -0.62731242
0.13488816 0.061868221 -0.62170005
0.14067364 0.06073153 -0.62100005
0.18662339 0.063081093 -0.62443745
0.19110186 0.06350559 -0.62771434
0.26557216 0.018012721 -0.61549997
0.27470773 0.01792576 -0.61405003
0.28461879 0.018096777 -0.6171667
0.29087859 0.018033657 -0.62
0.26576188 0.024738446 -0.61491388
0.27476099 0.025118275 -0.61242855
0.28463995 0.025011566 -0.61391842
0.29147342 0.024809916 -0.61750007
0.26723862 0.033724733 -0.6181035
0.27498877 0.034713116 -0.61555779
0.28388795 0.03481143 -0.61555254
0.14686452 0.047793616 -0.61856002
0.15517037 0.045594007 -0.61800003
0.16481294 0.046019506 -0.6186043
0.17218411 0.047976848 -0.61923075
0.27620944 0.042534288 -0.61500001
0.28247887 0.041473258 -0.61716676
0.1375798 0.057356805 -0.62
0.14503431 0.054895155 -0.61681962
0.15524514 0.0554194 -0.61377209
0.1648113 0.055292513 -0.61539602
0.17437166 0.055348646 -0.6183334
0.18038468 0.059302475 -0.62
0.14928277 0.060438138 -0.61800003
0.15515295 0.061378062 -0.61326671
0.16579828 0.061657913 -0.61255568
0.17453289 0.061541215 -0.61577779
0.18038468 0.06063373 -0.62
