# .PCD v0.7 - Point Cloud Data file format
VERSION 0.7
FIELDS x y z
SIZE 4 4 4
TYPE F F F
COUNT 1 1 1
WIDTH 106
HEIGHT 1
VIEWPOINT 0 0 0 1 0 0 0
POINTS 106
DATA ascii
-0.17986283 0.056365598 -0.81182063
-0.17952973 0.086122818 -0.82426089
-0.17800884 0.19356765 -0.80100006
-0.25468278 0.059550308 -0.77235174
-0.21949413 0.059645828 -0.76920313
-0.19116673 0.062150355 -0.78606218
-0.12332321 0.053536307 -0.76765698
-0.11763361 0.044232316 -0.76266676
-0.029859308 0.052345596 -0.76311368
-0.26233107 0.09598802 -0.76537138
-0.20668744 0.087357752 -0.76263046
-0.18594947 0.099861018 -0.77604872
-0.12451106 0.084434524 -0.7687692
-0.026279811 0.10718538 -0.76157153
-0.273523 0.13919926 -0.76393759
-0.18066913 0.13754328 -0.77544862
-0.095645107 0.15920839 -0.76800001
-0.17731056 0.1778916 -0.77506328
-0.096468545 0.16085739 -0.76800001
-0.17535535 0.20337415 -0.76540005
-0.094514146 0.021353727 -0.74702531
-0.061258055 0.020743785 -0.74562126
-0.035421073 0.031828225 -0.75527269
-0.2403823 0.078301698 -0.75900006
-0.22184452 0.076143667 -0.75876188
-0.12913361 0.068297535 -0.74733341
-0.098521136 0.059894633 -0.73602158
-0.05961464 0.059728198 -0.73273349
-0.032493964 0.061755396 -0.7506038
0.0023264708 0.04375742 -0.72233343
-0.24862453 0.10514593 -0.75308079
-0.22132549 0.10215124 -0.75218207
-0.19729508 0.11424924 -0.75721222
-0.13381985 0.091938913 -0.75300002
-0.10821377 0.096037023 -0.73083067
-0.048614252 0.091749191 -0.72516799
-0.033195201 0.10052334 -0.73864406
-0.25469893 0.14033943 -0.74406248
-0.21942793 0.14005457 -0.73769361
-0.19284198 0.14410639 -0.75122947
-0.121453 0.13718663 -0.72985721
-0.11596923 0.13914703 -0.7307542
-0.045223068 0.14592998 -0.74000001
-0.030849414 0.13411102 -0.72635669
-0.21881664 0.17816243 -0.72688842
-0.18886146 0.18063135 -0.74219513
-0.18551663 0.20398071 -0.74166679
0.022063278 0.019155622 -0.69528484
0.060059465 0.018373422 -0.69232017
0.093986057 0.021347381 -0.70628577
-0.083857134 0.077504538 -0.71936852
-0.075693235 0.078082882 -0.71945012
-0.0021591699 0.058903314 -0.71016669
0.01137064 0.055102814 -0.69200361
0.070549563 0.054043055 -0.68694025
0.082568459 0.057840057 -0.69929409
0.15255921 0.077401169 -0.7053721
0.17937388 0.07732413 -0.69871587
-0.090833127 0.10356694 -0.71551335
-0.064167485 0.10332795 -0.71450073
0.0095038619 0.10012949 -0.68893975
0.07225889 0.10146286 -0.68417495
0.10529847 0.088590793 -0.68511117
0.14189918 0.086237118 -0.70108306
0.17950688 0.086472347 -0.6967774
-0.098389782 0.12941261 -0.70971024
-0.057903808 0.12996724 -0.70768863
-0.033096801 0.13803819 -0.71711773
0.023537196 0.13068432 -0.69460416
0.065069251 0.12070183 -0.68100005
-0.22891346 0.19119869 -0.71921438
0.033750802 0.036596127 -0.67881256
0.046352815 0.032594051 -0.67891395
0.11370397 0.020816045 -0.65672213
0.12605208 0.011705936 -0.64395422
0.19108577 0.014505097 -0.64399958
0.20233452 0.011791873 -0.66381818
0.26706624 0.0073806355 -0.64885718
0.028440934 0.062549092 -0.67305839
0.054385964 0.062298428 -0.67251176
0.11117221 0.055935759 -0.64922178
0.19817731 0.05999985 -0.65658343
0.20364831 0.076436527 -0.66430771
0.26389143 0.042938009 -0.64066672
0.026283504 0.098797984 -0.6705485
0.05516028 0.097476691 -0.66843742
0.11459426 0.084756844 -0.67938894
0.19758056 0.083776079 -0.67340004
0.20196709 0.082050763 -0.66672724
0.028047148 0.12347528 -0.67175484
0.055012252 0.12354609 -0.67208886
0.15059206 -0.0062265601 -0.63783205
0.16814391 -0.0082331002 -0.63750583
0.23329531 -0.0016516317 -0.61420006
0.14289883 0.022450408 -0.6302973
0.17368306 0.022467846 -0.63097394
0.20069057 0.029516429 -0.63800001
0.26660961 0.021845164 -0.62264782
0.11711646 0.05737048 -0.63488764
0.13895591 0.051646259 -0.62261933
0.17843178 0.052692626 -0.62284452
0.20229934 0.069541141 -0.63450003
0.26977006 0.043000419 -0.62795305
0.071711287 0.11566775 -0.62425005
0.080024362 0.043428652 -0.56900001
0.1317113 0.080093578 -0.58700001
