# .PCD v0.7 - Point Cloud Data file format
VERSION 0.7
FIELDS x y z
SIZE 4 4 4
TYPE F F F
COUNT 1 1 1
WIDTH 353
HEIGHT 1
VIEWPOINT 0 0 0 1 0 0 0
POINTS 353
DATA ascii
-0.17641886 0.048890069 -0.82323092
-0.18106399 0.067538992 -0.82675004
-0.17818952 0.071143709 -0.82330018
-0.18115154 0.086816885 -0.83450001
-0.17880866 0.083674937 -0.83360004
-0.18324487 0.049746662 -0.80535847
-0.17825316 0.051776458 -0.81314301
-0.18068771 0.066058747 -0.80390912
-0.17877334 0.070890091 -0.80867869
-0.17795314 0.086785153 -0.80562502
-0.26865399 0.047797583 -0.78711778
-0.25849834 0.042041566 -0.78175008
-0.22228979 0.041180596 -0.78133339
-0.20561156 0.0457156 -0.78259104
-0.19210082 0.049823605 -0.7896474
-0.27079791 0.064510189 -0.78700006
-0.1870731 0.069853298 -0.78949994
-0.17939949 0.079083122 -0.79700005
-0.2783305 0.095675997 -0.78800005
-0.18360606 0.088008687 -0.78432083
-0.17742273 0.091850914 -0.79044014
-0.28099942 0.10640454 -0.78600001
-0.27753496 0.10656402 -0.78100002
-0.18136735 0.10698388 -0.78256249
-0.17610978 0.10984692 -0.78698474
-0.18049517 0.1288164 -0.78270006
-0.17657667 0.13004975 -0.79080003
-0.17595857 0.14894681 -0.78854769
-0.17542876 0.16910897 -0.78517658
-0.17820382 0.18850483 -0.79263169
-0.24757436 0.03721514 -0.77800012
-0.22993599 0.032169439 -0.77843535
-0.12158266 0.03054511 -0.77216667
-0.11629058 0.029772395 -0.76581264
-0.031444244 0.028261093 -0.76403934
-0.2623764 0.053989917 -0.77862501
-0.24939716 0.050135121 -0.77252907
-0.22972217 0.049835559 -0.77017659
-0.21145256 0.051965073 -0.77428955
-0.19805489 0.057403829 -0.77840012
-0.1231569 0.045883946 -0.7682693
-0.11763361 0.044232316 -0.76266682
-0.030912638 0.048218358 -0.7621944
-0.26367694 0.070692293 -0.77200007
-0.24990916 0.069803379 -0.76514149
-0.23002931 0.069497906 -0.76281118
-0.20952514 0.069501594 -0.76666415
-0.19622092 0.070623524 -0.7742058
-0.12380371 0.0756431 -0.76588899
-0.025119336 0.070918091 -0.76725006
-0.26563829 0.091258503 -0.76792514
-0.25440103 0.089306228 -0.76207465
-0.22519636 0.08085265 -0.76000005
-0.20589568 0.087506525 -0.76278168
-0.19258358 0.090776242 -0.77112782
-0.16492212 0.096715525 -0.76933336
-0.12451106 0.084434524 -0.76876938
-0.26718616 0.10840245 -0.76524568
-0.25801679 0.10274409 -0.76157153
-0.20153444 0.10043494 -0.76000005
-0.1888736 0.10942964 -0.76759708
-0.17981032 0.10963643 -0.77900004
-0.026279811 0.10718538 -0.76157147
-0.27186137 0.13364312 -0.76410007
-0.18552113 0.12913702 -0.76681817
-0.17941594 0.13738947 -0.77411109
-0.28207731 0.1499546 -0.76960003
-0.27629247 0.14845951 -0.76366675
-0.18273506 0.14693449 -0.76345235
-0.1781552 0.15110452 -0.77071428
-0.18043891 0.16772354 -0.76050007
-0.17807065 0.16954887 -0.7697736
-0.17704885 0.19093785 -0.76832616
-0.17535535 0.20337413 -0.76540005
-0.10619859 0.02992782 -0.75125271
-0.092716604 0.027655618 -0.74364036
-0.065136544 0.023062019 -0.74247998
-0.050180715 0.02950947 -0.74714231
-0.035927814 0.034092017 -0.75504875
-0.10993667 0.050227791 -0.74720418
-0.098965086 0.041985828 -0.74220008
-0.046104982 0.048413198 -0.74448329
-0.032499641 0.050622214 -0.75243163
-0.019129774 0.051900998 -0.74250007
-0.2403823 0.078301698 -0.75900006
-0.23494993 0.076943606 -0.75900006
-0.21660234 0.075823694 -0.75866657
-0.12141343 0.070153147 -0.75900006
-0.11496165 0.068684414 -0.74796301
-0.041194383 0.064654976 -0.74266672
-0.032266453 0.069438241 -0.7503714
-0.24441107 0.091009267 -0.75665069
-0.23039401 0.090297095 -0.7561745
-0.21364835 0.092635334 -0.75598896
-0.15959245 0.097113028 -0.74700004
-0.12093353 0.089351863 -0.75600004
-0.11748363 0.090050839 -0.74808341
-0.030272229 0.088705204 -0.74709094
-0.26266089 0.11620262 -0.75713342
-0.24903741 0.11059524 -0.75093216
-0.23029147 0.11018813 -0.7483803
-0.20972089 0.10998443 -0.75019145
-0.1972951 0.11424924 -0.75721222
-0.11858737 0.10274273 -0.74133337
-0.029041724 0.10862858 -0.74810874
-0.26428017 0.12954985 -0.7529465
-0.25065288 0.12941052 -0.74681985
-0.22902384 0.12472773 -0.74320555
-0.20753121 0.12784249 -0.74417734
-0.19484143 0.13099603 -0.75369537
-0.26614285 0.14889109 -0.74906671
-0.25550961 0.14467134 -0.74391901
-0.2055649 0.14458451 -0.74326319
-0.19141434 0.1507865 -0.75056255
-0.11343689 0.15238993 -0.74335724
-0.042730689 0.15407169 -0.75100005
-0.038851097 0.15413053 -0.7486667
-0.26876974 0.16579363 -0.74433339
-0.18577714 0.16985531 -0.74865359
-0.17895703 0.17838226 -0.75700009
-0.18389533 0.18896163 -0.7464028
-0.17875184 0.19084585 -0.75403023
-0.22147956 0.20640466 -0.74275005
-0.21865295 0.20636666 -0.74262506
-0.18269441 0.20403336 -0.74638462
-0.17713512 0.20452642 -0.75273341
-0.081034608 0.019935129 -0.74000001
-0.085184991 0.032883108 -0.73796755
-0.070674822 0.031416349 -0.73713493
-0.058543004 0.036404435 -0.73889995
-0.10222939 0.054024201 -0.73860002
-0.089428 0.049892742 -0.73274881
-0.069933861 0.049564086 -0.73191208
-0.054456271 0.05207742 -0.73630011
0.0023264708 0.04375742 -0.72233343
-0.14457399 0.064586312 -0.72400004
-0.10534538 0.07074216 -0.73508018
-0.090581059 0.069004662 -0.7278657
-0.069270983 0.069067687 -0.72560644
-0.050241984 0.070521653 -0.73200631
-0.038265038 0.076340728 -0.73744446
-0.10678896 0.090023868 -0.73041058
-0.096649379 0.086875945 -0.72243911
-0.063842319 0.082871668 -0.72158831
-0.048345074 0.088046998 -0.72602177
-0.036564294 0.092162646 -0.73462969
-0.11090221 0.10858921 -0.72787911
-0.043328609 0.10741869 -0.72383344
-0.035600491 0.11074504 -0.72940481
-0.24180634 0.13503717 -0.73900002
-0.2302344 0.13430552 -0.73627466
-0.21331418 0.13522758 -0.73936558
-0.12153225 0.13649389 -0.73033333
-0.1167667 0.12811495 -0.72471434
-0.041025113 0.12005092 -0.72100002
-0.030912669 0.12969144 -0.72615182
-0.26219991 0.15749803 -0.73933333
-0.24805389 0.15115678 -0.73433656
-0.22994851 0.15021999 -0.7321651
-0.20974435 0.15061609 -0.73567116
-0.19728965 0.1578401 -0.73920006
-0.12097756 0.14134297 -0.72700006
-0.11666002 0.14564693 -0.73036849
-0.056898151 0.14738396 -0.72600001
-0.030109232 0.1444668 -0.72530961
-0.2626749 0.17068599 -0.73434395
-0.2493335 0.17000586 -0.72889018
-0.22936508 0.16963089 -0.7242552
-0.21008001 0.16989991 -0.72993839
-0.19537002 0.17034067 -0.73621434
-0.26309273 0.18653075 -0.7340883
-0.25020379 0.18982443 -0.7255615
-0.22966543 0.18988374 -0.72322863
-0.20985886 0.18909234 -0.72876072
-0.19319998 0.19031528 -0.73415542
-0.19214572 0.20361863 -0.7323879
0.010775772 0.010526003 -0.70754361
0.022795906 0.0013222428 -0.70000005
0.072487816 0.0083861379 -0.70356172
0.1098344 0.0040937704 -0.70233339
0.0087525463 0.028412009 -0.70896298
0.076708116 0.027932955 -0.70413339
0.081806257 0.035237595 -0.71212506
-0.0020694225 0.057490528 -0.71042866
0.0043392559 0.05019566 -0.70679599
0.07849481 0.045348242 -0.70300013
0.08208283 0.044906184 -0.70792854
-0.083857141 0.077504531 -0.71936858
-0.075693235 0.078082882 -0.71945012
-0.0022848153 0.060881224 -0.70980006
0.0024806075 0.061985068 -0.70457155
0.15255919 0.077401154 -0.70537221
0.16879794 0.077646308 -0.70364112
0.18646626 0.074413709 -0.70090002
-0.088034458 0.09146376 -0.7181356
-0.070710942 0.090914421 -0.716968
-0.055558782 0.094741575 -0.71960413
0.0045273313 0.098940186 -0.70300007
0.1387284 0.085876785 -0.70054549
0.15097831 0.086545818 -0.70466411
0.17003742 0.086629599 -0.70368302
-0.10361002 0.11376087 -0.71764284
-0.089769512 0.10990708 -0.71308661
-0.069761574 0.11011444 -0.7106806
-0.052111547 0.1109426 -0.71520573
0.006179587 0.10272149 -0.70200008
-0.10773032 0.12985313 -0.71454328
-0.090345971 0.12824832 -0.7054494
-0.069732115 0.12762673 -0.70323795
-0.050252657 0.12961143 -0.7098735
-0.03830364 0.13135125 -0.71871442
0.034738239 0.13774604 -0.70640016
-0.10828395 0.14141695 -0.71630007
-0.04856189 0.14244971 -0.71515632
-0.026758032 0.14617881 -0.7151739
0.031108361 0.14187297 -0.71266675
-0.2295766 0.16935547 -0.72000003
-0.24257244 0.19154748 -0.71957147
-0.22890136 0.19159584 -0.7191999
0.017788995 0.011427677 -0.69770849
0.029988891 0.010221064 -0.69159663
0.049865235 0.010556338 -0.69067562
0.065119453 0.01124681 -0.69582182
0.11061706 0.0015604065 -0.69466674
0.015634784 0.031138897 -0.69470286
0.028448433 0.028266177 -0.68655175
0.052412614 0.027972318 -0.6823957
0.067349888 0.030267628 -0.69128925
0.013775541 0.050734621 -0.68969852
0.022468483 0.043927357 -0.68294114
0.054326706 0.041982435 -0.68140739
0.070296526 0.048293687 -0.68750548
0.080861762 0.058675058 -0.69100004
0.10905211 0.046805441 -0.69100004
0.010253354 0.06737452 -0.68715793
0.07586509 0.069096901 -0.68498486
0.081569679 0.068466395 -0.69350004
0.17865212 0.077620395 -0.69860005
0.18779208 0.077691406 -0.6935122
0.0064720386 0.090228833 -0.68892854
0.076123223 0.091096893 -0.68358976
0.080471694 0.098255858 -0.68766677
0.11771187 0.083758257 -0.68383336
0.12941135 0.085849524 -0.69605339
0.17832308 0.083089091 -0.6979
0.18777314 0.086386271 -0.69054997
0.014030659 0.11204854 -0.68620592
0.068583064 0.11132318 -0.68473184
0.015631916 0.12427481 -0.68403703
0.065069251 0.12070183 -0.68100005
0.11029006 0.010207596 -0.66746539
0.19956063 0.008586973 -0.66150004
0.20233452 0.011791873 -0.66381824
0.26365852 0.0043510781 -0.66375005
0.033750799 0.036596127 -0.67881268
0.046352815 0.032594059 -0.67891413
0.10833529 0.028113436 -0.66503704
0.019682135 0.059114031 -0.67900002
0.030801421 0.050125606 -0.67589492
0.04900929 0.051145151 -0.67494929
0.064303949 0.053661719 -0.67675006
0.10978599 0.045143384 -0.66342866
0.016549852 0.07179977 -0.67601579
0.03019578 0.069803283 -0.66983283
0.050220091 0.070126459 -0.66767299
0.06643308 0.070540942 -0.67547637
0.110314 0.071972892 -0.67060012
0.19780135 0.077809669 -0.67445457
0.2030018 0.077063315 -0.66728574
0.015087089 0.089026555 -0.67362249
0.03025002 0.090011291 -0.66745484
0.050030481 0.089624621 -0.66522491
0.067467473 0.089615829 -0.67229635
0.11459427 0.084756836 -0.67938894
0.19760095 0.08370249 -0.67404169
0.20183779 0.08198718 -0.66784215
0.017189408 0.1073446 -0.67613649
0.030098351 0.11023808 -0.67073905
0.048903298 0.10900355 -0.66852671
0.06868194 0.10382579 -0.67431599
0.01627413 0.125935 -0.67873335
0.032694392 0.12250434 -0.66899991
0.044220071 0.12271467 -0.66726321
0.063575335 0.12427787 -0.67628002
0.11821192 -0.0084418152 -0.65870279
0.12973335 -0.009606231 -0.64885974
0.14862728 -0.014499844 -0.64197296
0.17065927 -0.012830475 -0.64231586
0.18778689 -0.0091930954 -0.64981949
0.25902966 -0.010145718 -0.64922732
0.26180285 -0.010389972 -0.64546478
0.11601794 0.010922538 -0.65602136
0.12700966 0.00821329 -0.64423239
0.17933257 0.0014379404 -0.64000005
0.18915689 0.0086740861 -0.64429986
0.25944066 0.0096971719 -0.64100003
0.26786855 0.0075885565 -0.64763898
0.28199694 0.013348862 -0.64509094
0.11456879 0.030114321 -0.65133113
0.12214833 0.025945153 -0.64282054
0.19482255 0.027305432 -0.64224076
0.11192947 0.050203145 -0.64701623
0.19849543 0.044929981 -0.64146161
0.26389143 0.042938009 -0.64066672
0.28052276 0.046243366 -0.64200002
0.10994986 0.066082776 -0.64845008
0.20636366 0.073804058 -0.65180004
0.19709191 0.085542671 -0.65800005
0.20278585 0.0824534 -0.65966672
0.052428044 0.11760318 -0.65923077
0.045987252 0.12104748 -0.65900004
0.13926294 -0.00062237954 -0.63900006
0.15089864 -0.0053759851 -0.63780755
0.16742958 -0.0055375188 -0.63737494
0.27032018 -0.0097979959 -0.63080889
0.13485336 0.01384089 -0.63565904
0.149873 0.010119604 -0.63272053
0.16965663 0.010478172 -0.63368726
0.18259864 0.015303504 -0.6371786
0.25769731 0.01753567 -0.6332401
0.26720726 0.0072722435 -0.62924153
0.13095029 0.030936792 -0.63188994
0.14959553 0.030233996 -0.62453151
0.16965367 0.030360851 -0.62601012
0.18617395 0.031459983 -0.63365155
0.20069057 0.029516429 -0.63800001
0.25704396 0.027072635 -0.62820005
0.26360345 0.033230621 -0.62448883
0.11779284 0.051469978 -0.6360625
0.12933773 0.04975177 -0.62780112
0.14485392 0.043707617 -0.62227082
0.17417888 0.044653129 -0.62239623
0.18818915 0.050290801 -0.62860286
0.26945335 0.04302334 -0.62859017
0.28024685 0.040861715 -0.62300003
0.11632458 0.064278364 -0.6335122
0.12840313 0.062637083 -0.62551785
0.14067364 0.06073153 -0.62100005
0.19258557 0.063944012 -0.62943137
0.20229934 0.069541141 -0.63450003
0.23329531 -0.0016516317 -0.61420006
0.26972467 0.017973192 -0.6148411
0.28494829 0.018093452 -0.61731577
0.27115574 0.028714748 -0.61476219
0.1375798 0.057356801 -0.62
0.15102044 0.051565778 -0.61648971
0.16800022 0.051844757 -0.61749333
0.18038468 0.059302475 -0.62
0.27620944 0.042534288 -0.61500007
0.28247887 0.041473258 -0.61716676
0.15478607 0.061319321 -0.61356252
0.1701656 0.06159956 -0.61416668
0.18038468 0.06063373 -0.62
