# .PCD v0.7 - Point Cloud Data file format
VERSION 0.7
FIELDS x y z
SIZE 4 4 4
TYPE F F F
COUNT 1 1 1
WIDTH 1583
HEIGHT 1
VIEWPOINT 0 0 0 1 0 0 0
POINTS 1583
DATA ascii
0.40410161 0.11846774 0.80600005
0.40532875 0.11832076 0.80500007
nan nan nan
nan nan nan
nan nan nan
nan nan nan
0.41705665 0.11920265 0.81100005
nan nan nan
nan nan nan
nan nan nan
nan nan nan
nan nan nan
nan nan nan
nan nan nan
nan nan nan
nan nan nan
nan nan nan
nan nan nan
nan nan nan
nan nan nan
nan nan nan
nan nan nan
nan nan nan
nan nan nan
nan nan nan
nan nan nan
nan nan nan
nan nan nan
nan nan nan
nan nan nan
nan nan nan
nan nan nan
nan nan nan
nan nan nan
nan nan nan
nan nan nan
nan nan nan
nan nan nan
nan nan nan
nan nan nan
nan nan nan
nan nan nan
nan nan nan
nan nan nan
nan nan nan
nan nan nan
nan nan nan
nan nan nan
nan nan nan
-0.34179902 0.12019837 0.80600005
-0.3400684 0.12019837 0.80600005
-0.33749822 0.11990011 0.80400002
-0.33577189 0.11990011 0.80400002
-0.33404553 0.11990011 0.80400002
-0.3323192 0.11990011 0.80400002
-0.33059287 0.11990011 0.80400002
-0.33091173 0.12064575 0.80900002
nan nan nan
-0.3424131 0.12616354 0.84600002
-0.34059659 0.12616354 0.84600002
-0.33677784 0.1254179 0.84100002
-0.33337885 0.12482138 0.83700001
-0.33277011 0.12526877 0.84000003
-0.33136049 0.1254179 0.84100002
-0.32916284 0.12526877 0.84000003
-0.32735923 0.12526877 0.84000003
-0.32516804 0.12511964 0.83900005
-0.32336655 0.12511964 0.83900005
-0.3227149 0.12556703 0.84200007
-0.3205258 0.1254179 0.84100002
-0.31834108 0.12526877 0.84000003
-0.31691426 0.1254179 0.84100002
-0.31510848 0.1254179 0.84100002
-0.31367525 0.12556703 0.84200007
-0.31149691 0.1254179 0.84100002
-0.30969116 0.1254179 0.84100002
-0.30788535 0.1254179 0.84100002
-0.30680749 0.12571616 0.84300005
-0.30463561 0.12556703 0.84200007
-0.30318734 0.12571616 0.84300005
-0.30066222 0.1254179 0.84100002
-0.29956719 0.12571616 0.84300005
-0.29775712 0.12571616 0.84300005
-0.29594705 0.12571616 0.84300005
-0.29378808 0.12556703 0.84200007
-0.2923269 0.12571616 0.84300005
-0.29086146 0.12586528 0.84400004
-0.28973415 0.12616354 0.84600002
-0.28791764 0.12616354 0.84600002
-0.28643933 0.12631267 0.84700006
-0.28529271 0.12661093 0.84900004
-0.28380367 0.12676007 0.85000002
-0.28264204 0.12705833 0.85200006
-0.2831198 0.12810223 0.85900003
-0.28291255 0.12884787 0.86400002
-0.28203332 0.12929526 0.86700004
-0.28081799 0.12959352 0.86900002
-0.27959412 0.12989178 0.87100005
-0.27804279 0.13004091 0.87200004
-0.27617043 0.13004091 0.87200004
-0.27398354 0.12989178 0.87100005
-0.27211332 0.12989178 0.87100005
-0.27024314 0.12989178 0.87100005
-0.26806483 0.12974265 0.87000006
-0.26619679 0.12974265 0.87000006
-0.26432872 0.12974265 0.87000006
-0.26276237 0.12989178 0.87100005
-0.2611917 0.13004091 0.87200004
-0.25961673 0.13019004 0.87300003
-0.25803748 0.13033916 0.87400001
-0.25586775 0.13019004 0.87300003
-0.2542842 0.13033916 0.87400001
-0.25269637 0.13048831 0.87500006
-0.2508176 0.13048831 0.87500006
-0.24893883 0.13048831 0.87500006
-0.24734238 0.13063744 0.87600005
-0.24574167 0.13078655 0.87700003
-0.2444147 0.13108483 0.87900007
-0.24280325 0.13123395 0.88000005
-0.24063995 0.13108483 0.87900007
-0.23875259 0.13108483 0.87900007
-0.23659572 0.13093568 0.87800002
-0.2347105 0.13093568 0.87800002
-0.23282529 0.13093568 0.87800002
-0.230414 0.13063744 0.87600005
-0.22853307 0.13063744 0.87600005
-0.22665213 0.13063744 0.87600005
-0.22477122 0.13063744 0.87600005
-0.22289027 0.13063744 0.87600005
-0.22126164 0.13078655 0.87700003
-0.21937858 0.13078655 0.87700003
-0.21749549 0.13078655 0.87700003
-0.21585825 0.13093568 0.87800002
-0.21372932 0.13078655 0.87700003
-0.21184626 0.13078655 0.87700003
-0.20948437 0.13048831 0.87500006
-0.2073683 0.13033916 0.87400001
-0.20502144 0.13004091 0.87200004
-0.2031491 0.13004091 0.87200004
-0.20127675 0.13004091 0.87200004
-0.19917573 0.12989178 0.87100005
-0.19730555 0.12989178 0.87100005
-0.19543536 0.12989178 0.87100005
-0.1937874 0.13004091 0.87200004
-0.19191505 0.13004091 0.87200004
-0.19026063 0.13019004 0.87300003
-0.18860194 0.13033916 0.87400001
-0.1867253 0.13033916 0.87400001
-0.18506017 0.13048831 0.87500006
-0.18297203 0.13033916 0.87400001
-0.18088821 0.13019004 0.87300003
-0.17880866 0.13004091 0.87200004
-0.17693631 0.13004091 0.87200004
-0.17506397 0.13004091 0.87200004
-0.17319162 0.13004091 0.87200004
-0.17112282 0.12989178 0.87100005
-0.16944693 0.13004091 0.87200004
-0.1675746 0.13004091 0.87200004
-0.16589229 0.13019004 0.87300003
-0.16420567 0.13033916 0.87400001
-0.16232903 0.13033916 0.87400001
-0.16063599 0.13048831 0.87500006
-0.15875721 0.13048831 0.87500006
-0.1570577 0.13063744 0.87600005
-0.15517677 0.13063744 0.87600005
-0.15312085 0.13048831 0.87500006
-0.15124208 0.13048831 0.87500006
-0.14936329 0.13048831 0.87500006
-0.14731595 0.13033916 0.87400001
-0.14543931 0.13033916 0.87400001
-0.14356267 0.13033916 0.87400001
-0.14184815 0.13048831 0.87500006
-0.13996936 0.13048831 0.87500006
-0.13809058 0.13048831 0.87500006
-0.13636747 0.13063744 0.87600005
-0.13433303 0.13048831 0.87500006
-0.13245423 0.13048831 0.87500006
-0.13042621 0.13033916 0.87400001
-0.1284025 0.13019004 0.87300003
-0.12652801 0.13019004 0.87300003
-0.12451074 0.13004091 0.87200004
-0.12263839 0.13004091 0.87200004
-0.12090454 0.13019004 0.87300003
-0.11930276 0.13048831 0.87500006
-0.11769237 0.13078655 0.87700003
-0.11594134 0.13093568 0.87800002
-0.11405611 0.13093568 0.87800002
-0.11217088 0.13093568 0.87800002
-0.11028565 0.13093568 0.87800002
-0.10840043 0.13093568 0.87800002
-0.10627258 0.13063744 0.87600005
-0.10427248 0.13048831 0.87500006
-0.10239369 0.13048831 0.87500006
-0.10051492 0.13048831 0.87500006
-0.098636135 0.13048831 0.87500006
-0.096757345 0.13048831 0.87500006
-0.094878562 0.13048831 0.87500006
-0.092999786 0.13048831 0.87500006
-0.091120996 0.13048831 0.87500006
-0.089242212 0.13048831 0.87500006
-0.087363429 0.13048831 0.87500006
-0.085484654 0.13048831 0.87500006
-0.083701417 0.13063744 0.87600005
-0.082007281 0.13093568 0.87800002
-0.080122054 0.13093568 0.87800002
-0.078236841 0.13093568 0.87800002
-0.076438576 0.13108483 0.87900007
-0.074551202 0.13108483 0.87900007
-0.072581157 0.13093568 0.87800002
-0.070695937 0.13093568 0.87800002
-0.068732336 0.13078655 0.87700003
-0.066849262 0.13078655 0.87700003
-0.064966179 0.13078655 0.87700003
-0.063011177 0.13063744 0.87600005
-0.061130244 0.13063744 0.87600005
-0.059249315 0.13063744 0.87600005
-0.057302892 0.13048831 0.87500006
-0.055424117 0.13048831 0.87500006
-0.053606525 0.13063744 0.87600005
-0.051725592 0.13063744 0.87600005
-0.049787764 0.13048831 0.87500006
-0.047908977 0.13048831 0.87500006
-0.046082802 0.13063744 0.87600005
-0.044252329 0.13078655 0.87700003
-0.042417563 0.13093568 0.87800002
-0.040532336 0.13093568 0.87800002
-0.038735148 0.13123395 0.88000005
-0.036929365 0.13153221 0.88200003
-0.035154723 0.1319796 0.88500005
-0.03329204 0.13212873 0.88600004
-0.031354211 0.1319796 0.88500005
-0.029387392 0.13168134 0.88300002
-0.027491434 0.13168134 0.88300002
-0.025595471 0.13168134 0.88300002
-0.023645833 0.13138308 0.88100004
-0.021754166 0.13138308 0.88100004
-0.019862499 0.13138308 0.88100004
-0.017970832 0.13138308 0.88100004
-0.016079167 0.13138308 0.88100004
-0.014171396 0.13123395 0.88000005
-0.012281876 0.13123395 0.88000005
-0.010392357 0.13123395 0.88000005
-0.0084931748 0.13108483 0.87900007
-0.0065982873 0.13093568 0.87800002
-0.0047130622 0.13093568 0.87800002
-0.0028278374 0.13093568 0.87800002
-0.00094261247 0.13093568 0.87800002
0.00094261247 0.13093568 0.87800002
0.0028342791 0.13123395 0.88000005
0.0047237985 0.13123395 0.88000005
0.0066208327 0.13138308 0.88100004
0.0085221613 0.13153221 0.88200003
0.010427784 0.13168134 0.88300002
0.012323746 0.13168134 0.88300002
0.014219707 0.13168134 0.88300002
0.016115667 0.13168134 0.88300002
0.018011628 0.13168134 0.88300002
0.01990759 0.13168134 0.88300002
0.02180355 0.13168134 0.88300002
0.023699511 0.13168134 0.88300002
0.025595471 0.13168134 0.88300002
0.027491434 0.13168134 0.88300002
0.029420676 0.13183047 0.88400006
0.031318784 0.13183047 0.88400006
0.03329204 0.13212873 0.88600004
0.035194445 0.13212873 0.88600004
0.037138715 0.13227785 0.88700002
0.039087284 0.13242699 0.88800007
0.040993981 0.13242699 0.88800007
0.042948991 0.13257612 0.88900006
0.044857834 0.13257612 0.88900006
0.04676668 0.13257612 0.88900006
0.048730273 0.13272524 0.89000005
0.050641265 0.13272524 0.89000005
0.052611303 0.13287437 0.89100003
0.054585636 0.1330235 0.89200002
0.056564268 0.13317263 0.89300007
0.058416203 0.1330235 0.89200002
0.06033149 0.1330235 0.89200002
0.062176995 0.13287437 0.89100003
0.064162068 0.1330235 0.89200002
0.066077344 0.1330235 0.89200002
0.068068862 0.13317263 0.89300007
0.069986299 0.13317263 0.89300007
0.071984246 0.13332176 0.89400005
0.074069157 0.13362002 0.89600003
0.075993031 0.13362002 0.89600003
0.078003868 0.13376914 0.89700001
0.080018997 0.13391829 0.89800006
0.081947163 0.13391829 0.89800006
0.083781928 0.13376914 0.89700001
0.085899055 0.13406742 0.89900005
0.087829374 0.13406742 0.89900005
0.089759685 0.13406742 0.89900005
0.091689996 0.13406742 0.89900005
0.093828589 0.13436566 0.90100002
0.095869489 0.13451481 0.90200007
0.097914673 0.13466392 0.90300006
0.099964164 0.13481306 0.90400004
0.10213067 0.13511132 0.90600002
0.10407601 0.13511132 0.90600002
0.10613838 0.13526045 0.90700006
0.10808588 0.13526045 0.90700006
0.11015469 0.13540958 0.90800005
0.11198086 0.13526045 0.90700006
0.11380274 0.13511132 0.90600002
0.11549257 0.13481306 0.90400004
0.11730372 0.13466392 0.90300006
0.11924263 0.13466392 0.90300006
0.12118154 0.13466392 0.90300006
0.12325679 0.13481306 0.90400004
0.12547481 0.13511132 0.90600002
0.12742016 0.13511132 0.90600002
0.1295083 0.13526045 0.90700006
0.13160072 0.13540958 0.90800005
0.13355038 0.13540958 0.90800005
0.13550001 0.13540958 0.90800005
0.13729829 0.13526045 0.90700006
0.13924578 0.13526045 0.90700006
0.1415046 0.13555871 0.90900004
0.14345638 0.13555871 0.90900004
0.14556813 0.13570783 0.91000003
0.14768419 0.13585697 0.91100007
0.14996879 0.13615522 0.91300005
0.15209557 0.13630435 0.91400003
0.15439521 0.13660261 0.91600007
0.15687412 0.13705 0.91900003
0.16040301 0.13839217 0.92800003
0.16607049 0.14152388 0.94900006
0.16934817 0.14256778 0.95600003
0.17229731 0.14331344 0.96100003
0.17472364 0.1436117 0.96300006
0.17679138 0.1436117 0.96300006
0.17848764 0.14331344 0.96100003
0.18017533 0.14301518 0.95900005
0.18223448 0.14301518 0.95900005
0.18467796 0.14331344 0.96100003
0.18751869 0.14390995 0.96500003
0.19037658 0.14450647 0.96900004
0.19305305 0.14495386 0.97200006
0.19594316 0.14555039 0.97600007
0.19864753 0.14599776 0.97900003
0.20115975 0.14629602 0.98100007
0.20326613 0.14629602 0.98100007
0.2053725 0.14629602 0.98100007
nan nan nan
nan nan nan
nan nan nan
nan nan nan
nan nan nan
nan nan nan
nan nan nan
nan nan nan
nan nan nan
nan nan nan
nan nan nan
nan nan nan
nan nan nan
nan nan nan
nan nan nan
0.20544335 0.12571616 0.84300005
0.20676172 0.1254179 0.84100002
0.20807151 0.12511964 0.83900005
0.2093727 0.12482138 0.83700001
0.2106653 0.12452312 0.83500004
0.21194932 0.12422486 0.83300006
0.21322474 0.1239266 0.83100003
0.2139741 0.12333009 0.82700002
0.21522807 0.12303182 0.82500005
0.21647342 0.12273356 0.82300001
0.21771021 0.12243531 0.82100004
0.2189384 0.12213705 0.81900007
0.21988851 0.12168966 0.81600004
0.22055414 0.12109315 0.81200004
0.22147635 0.12064575 0.80900002
0.2223857 0.12019837 0.80600005
0.22356018 0.11990011 0.80400002
0.22500633 0.11975098 0.80300003
0.2261658 0.11945272 0.80100006
0.2276012 0.11930358 0.80000001
0.22931893 0.11930358 0.80000001
0.23074788 0.11915446 0.79900002
0.2318816 0.11885621 0.79700005
0.23300672 0.11855794 0.79500002
0.23382804 0.11811056 0.79200006
0.23552859 0.11811056 0.79200006
0.23722917 0.11811056 0.79200006
0.23862803 0.11796142 0.79100001
0.24002261 0.11781229 0.79000002
0.2417189 0.11781229 0.79000002
0.24341518 0.11781229 0.79000002
0.24511145 0.11781229 0.79000002
0.24649531 0.11766317 0.78900003
0.24787489 0.11751404 0.78800005
0.24925016 0.11736491 0.78700006
0.25094 0.11736491 0.78700006
0.25230879 0.11721577 0.78600001
0.25270388 0.11661927 0.78200006
0.25275648 0.11587361 0.77700001
0.25278762 0.11512796 0.77200001
0.25345647 0.11468058 0.76900005
0.25477591 0.11453144 0.76800001
0.25609106 0.11438231 0.76700002
0.25740191 0.11423319 0.76600003
0.25870848 0.11408406 0.76500005
0.26001075 0.11393493 0.76400006
0.26165119 0.11393493 0.76400006
0.26329166 0.11393493 0.76400006
0.26458529 0.1137858 0.76300001
0.26657254 0.11393493 0.76400006
0.26926616 0.11438231 0.76700002
0.2716195 0.11468058 0.76900005
0.27540281 0.11557535 0.77500004
0.27849689 0.11617187 0.77900004
0.28016955 0.11617187 0.77900004
0.282204 0.116321 0.78000003
0.2838788 0.116321 0.78000003
0.28482142 0.11602274 0.77800006
0.28612369 0.11587361 0.77700001
0.28742164 0.11572448 0.77600002
0.28871533 0.11557535 0.77500004
0.29075408 0.11572448 0.77600002
0.29279712 0.11587361 0.77700001
0.29522344 0.11617187 0.77900004
0.29803947 0.11661927 0.78200006
0.30125165 0.11721577 0.78600001
0.30332476 0.11736491 0.78700006
0.30501461 0.11736491 0.78700006
0.30670443 0.11736491 0.78700006
0.30800238 0.11721577 0.78600001
0.30969006 0.11721577 0.78600001
0.31137773 0.11721577 0.78600001
0.31306544 0.11721577 0.78600001
0.31475312 0.11721577 0.78600001
0.31684342 0.11736491 0.78700006
0.31853324 0.11736491 0.78700006
0.31981617 0.11721577 0.78600001
0.32150385 0.11721577 0.78600001
0.32278034 0.11706664 0.78500003
0.3244659 0.11706664 0.78500003
0.32615143 0.11706664 0.78500003
0.32741937 0.11691752 0.78400004
0.32994229 0.11721577 0.78600001
0.33247381 0.11751404 0.78800005
0.33458987 0.11766317 0.78900003
0.33671018 0.11781229 0.79000002
0.33883482 0.11796142 0.79100001
0.34010273 0.11781229 0.79000002
0.34179902 0.11781229 0.79000002
0.34349528 0.11781229 0.79000002
0.34519157 0.11781229 0.79000002
0.34688783 0.11781229 0.79000002
0.34858409 0.11781229 0.79000002
0.34983701 0.11766317 0.78900003
0.35153112 0.11766317 0.78900003
0.35367292 0.11781229 0.79000002
0.35491937 0.11766317 0.78900003
0.35616153 0.11751404 0.78800005
0.3578535 0.11751404 0.78800005
0.3595455 0.11751404 0.78800005
0.36169589 0.11766317 0.78900003
0.36339 0.11766317 0.78900003
0.3646214 0.11751404 0.78800005
0.36677825 0.11766317 0.78900003
0.3689394 0.11781229 0.79000002
0.37063566 0.11781229 0.79000002
0.37280324 0.11796142 0.79100001
0.37450165 0.11796142 0.79100001
0.3766757 0.11811056 0.79200006
0.37837625 0.11811056 0.79200006
0.37959689 0.11796142 0.79100001
0.38177741 0.11811056 0.79200006
0.38347796 0.11811056 0.79200006
0.38566485 0.11825968 0.79300004
0.38883302 0.11870708 0.79600006
0.39152345 0.11900533 0.79800004
0.39422244 0.11930358 0.80000001
0.39643511 0.11945272 0.80100006
0.39865208 0.11960185 0.80200005
0.40087333 0.11975098 0.80300003
0.40309885 0.11990011 0.80400002
0.4043217 0.11975098 0.80300003
0.40604591 0.11975098 0.80300003
nan nan nan
0.4100042 0.11990011 0.80400002
0.41275477 0.12019837 0.80600005
0.41499966 0.1203475 0.80700004
nan nan nan
nan nan nan
nan nan nan
nan nan nan
nan nan nan
nan nan nan
nan nan nan
nan nan nan
nan nan nan
nan nan nan
nan nan nan
nan nan nan
nan nan nan
nan nan nan
nan nan nan
nan nan nan
nan nan nan
nan nan nan
nan nan nan
nan nan nan
nan nan nan
nan nan nan
nan nan nan
nan nan nan
nan nan nan
nan nan nan
nan nan nan
nan nan nan
nan nan nan
nan nan nan
nan nan nan
nan nan nan
nan nan nan
nan nan nan
nan nan nan
nan nan nan
nan nan nan
nan nan nan
nan nan nan
nan nan nan
nan nan nan
-0.34395584 0.12208027 0.80700004
-0.34264717 0.12223155 0.80800003
-0.34049031 0.12208027 0.80700004
-0.33833778 0.121929 0.80600005
-0.33618954 0.12177772 0.80500007
-0.33404553 0.12162644 0.80400002
-0.33190587 0.12147517 0.80300003
-0.33018169 0.12147517 0.80300003
nan nan nan
nan nan nan
-0.34403208 0.12858516 0.85000002
-0.34059659 0.12798005 0.84600002
-0.33597693 0.12692113 0.83900005
-0.33218396 0.12616475 0.83400005
nan nan nan
-0.32899645 0.12631603 0.83500004
-0.32720354 0.12631603 0.83500004
-0.32619008 0.12661856 0.83700001
-0.32323021 0.12616475 0.83400005
-0.32182488 0.12631603 0.83500004
-0.3211818 0.12676986 0.83800006
-0.31976357 0.12692113 0.83900005
-0.31720412 0.12661856 0.83700001
-0.31578377 0.12676986 0.83800006
-0.31398445 0.12676986 0.83800006
-0.31255764 0.12692113 0.83900005
-0.31075615 0.12692113 0.83900005
-0.30821818 0.12661856 0.83700001
-0.30642098 0.12661856 0.83700001
-0.30462378 0.12661856 0.83700001
-0.30246478 0.12646729 0.83600003
-0.30031011 0.12631603 0.83500004
-0.29815972 0.12616475 0.83400005
-0.29672432 0.12631603 0.83500004
-0.29599106 0.12676986 0.83800006
-0.29454279 0.12692113 0.83900005
-0.2927413 0.12692113 0.83900005
-0.29163334 0.12722367 0.84100002
-0.29017222 0.12737496 0.84200007
-0.28904921 0.12767752 0.84400004
-0.28791764 0.12798005 0.84600002
-0.28610113 0.12798005 0.84600002
-0.28495669 0.12828262 0.84800005
-0.28380367 0.12858516 0.85000002
-0.28363726 0.12934154 0.85500002
-0.28410858 0.13040049 0.86200005
-0.28356746 0.1310056 0.86600006
-0.28203332 0.13115688 0.86700004
-0.28081799 0.13145943 0.86900002
-0.27927312 0.13161071 0.87000006
-0.27740508 0.13161071 0.87000006
-0.2752203 0.13145943 0.86900002
-0.27335441 0.13145943 0.86900002
-0.27148849 0.13145943 0.86900002
-0.26962259 0.13145943 0.86900002
-0.26775667 0.13145943 0.86900002
-0.26589081 0.13145943 0.86900002
-0.26372105 0.13130815 0.86800003
-0.26215899 0.13145943 0.86900002
-0.26059264 0.13161071 0.87000006
-0.25902197 0.13176198 0.87100005
-0.25715178 0.13176198 0.87100005
-0.25498849 0.13161071 0.87000006
-0.25341138 0.13176198 0.87100005
-0.25182998 0.13191326 0.87200004
-0.249671 0.13176198 0.87100005
-0.24808532 0.13191326 0.87200004
-0.24649531 0.13206454 0.87300003
-0.24462083 0.13206454 0.87300003
-0.24330245 0.13236709 0.87500006
-0.24169959 0.13251837 0.87600005
-0.23981865 0.13251837 0.87600005
-0.23793773 0.13251837 0.87600005
-0.23605679 0.13251837 0.87600005
-0.23390855 0.13236709 0.87500006
-0.23202977 0.13236709 0.87500006
-0.22988793 0.13221581 0.87400001
-0.22775042 0.13206454 0.87300003
-0.22561719 0.13191326 0.87200004
-0.22374485 0.13191326 0.87200004
-0.22187251 0.13191326 0.87200004
-0.22025247 0.13206454 0.87300003
-0.21837799 0.13206454 0.87300003
-0.21675149 0.13221581 0.87400001
-0.2151207 0.13236709 0.87500006
-0.21324192 0.13236709 0.87500006
-0.21136315 0.13236709 0.87500006
-0.20900553 0.13206454 0.87300003
-0.20689379 0.13191326 0.87200004
-0.20455121 0.13161071 0.87000006
-0.20245019 0.13145943 0.86900002
-0.20058428 0.13145943 0.86900002
-0.19871838 0.13145943 0.86900002
-0.19662595 0.13130815 0.86800003
-0.19476222 0.13130815 0.86800003
-0.19312069 0.13145943 0.86900002
-0.19147488 0.13161071 0.87000006
-0.18982476 0.13176198 0.87100005
-0.18795457 0.13176198 0.87100005
-0.18608437 0.13176198 0.87100005
-0.18442567 0.13191326 0.87200004
-0.18255334 0.13191326 0.87200004
-0.1804738 0.13176198 0.87100005
-0.17839855 0.13161071 0.87000006
-0.1765305 0.13161071 0.87000006
-0.17466246 0.13161071 0.87000006
-0.1727944 0.13161071 0.87000006
-0.17072988 0.13145943 0.86900002
-0.16905831 0.13161071 0.87000006
-0.16738242 0.13176198 0.87100005
-0.16570227 0.13191326 0.87200004
-0.16382992 0.13191326 0.87200004
-0.16195758 0.13191326 0.87200004
-0.16026881 0.13206454 0.87300003
-0.15875721 0.13236709 0.87500006
-0.15687841 0.13236709 0.87500006
-0.15499963 0.13236709 0.87500006
-0.15294585 0.13221581 0.87400001
-0.15106922 0.13221581 0.87400001
-0.14919259 0.13221581 0.87400001
-0.14714739 0.13206454 0.87300003
-0.14510649 0.13191326 0.87200004
-0.14339842 0.13206454 0.87300003
-0.14152393 0.13206454 0.87300003
-0.13964944 0.13206454 0.87300003
-0.13777494 0.13206454 0.87300003
-0.13590047 0.13206454 0.87300003
-0.13402598 0.13206454 0.87300003
-0.1320001 0.13191326 0.87200004
-0.12997854 0.13176198 0.87100005
-0.12796126 0.13161071 0.87000006
-0.12594827 0.13145943 0.86900002
-0.12408236 0.13145943 0.86900002
-0.12221646 0.13145943 0.86900002
-0.12048906 0.13161071 0.87000006
-0.11875737 0.13176198 0.87100005
-0.11715557 0.13206454 0.87300003
-0.11541313 0.13221581 0.87400001
-0.1136664 0.13236709 0.87500006
-0.11178762 0.13236709 0.87500006
-0.10990883 0.13236709 0.87500006
-0.10803005 0.13236709 0.87500006
-0.10602994 0.13221581 0.87400001
-0.10403414 0.13206454 0.87300003
-0.10215965 0.13206454 0.87300003
-0.10028517 0.13206454 0.87300003
-0.098523401 0.13221581 0.87400001
-0.096536182 0.13206454 0.87300003
-0.094553262 0.13191326 0.87200004
-0.092787206 0.13206454 0.87300003
-0.090808585 0.13191326 0.87200004
-0.088936239 0.13191326 0.87200004
-0.087063894 0.13191326 0.87200004
-0.085093863 0.13176198 0.87100005
-0.083223663 0.13176198 0.87100005
-0.081353471 0.13176198 0.87100005
-0.079574525 0.13191326 0.87200004
-0.077702187 0.13191326 0.87200004
-0.076003768 0.13221581 0.87400001
-0.074211948 0.13236709 0.87500006
-0.072333165 0.13236709 0.87500006
-0.070454381 0.13236709 0.87500006
-0.068575598 0.13236709 0.87500006
-0.066696815 0.13236709 0.87500006
-0.064818025 0.13236709 0.87500006
-0.062867314 0.13221581 0.87400001
-0.060990676 0.13221581 0.87400001
-0.059046403 0.13206454 0.87300003
-0.057106424 0.13191326 0.87200004
-0.055234089 0.13191326 0.87200004
-0.053422939 0.13206454 0.87300003
-0.051607493 0.13221581 0.87400001
-0.04973086 0.13221581 0.87400001
-0.047799468 0.13206454 0.87300003
-0.045977589 0.13221581 0.87400001
-0.04415141 0.13236709 0.87500006
-0.042272627 0.13236709 0.87500006
-0.040440008 0.13251837 0.87600005
-0.038603093 0.13266964 0.87700003
-0.036761884 0.13282092 0.87800002
-0.034916386 0.1329722 0.87900007
-0.033066589 0.13312347 0.88000005
-0.03117707 0.13312347 0.88000005
-0.029254269 0.1329722 0.87900007
-0.027366897 0.1329722 0.87900007
-0.025450537 0.13282092 0.87800002
-0.023565313 0.13282092 0.87800002
-0.021680087 0.13282092 0.87800002
-0.019794863 0.13282092 0.87800002
-0.017930036 0.1329722 0.87900007
-0.016042665 0.1329722 0.87900007
-0.014155292 0.1329722 0.87900007
-0.012253962 0.13282092 0.87800002
-0.010368737 0.13282092 0.87800002
-0.0084835123 0.13282092 0.87800002
-0.0065907724 0.13266964 0.87700003
-0.0047076945 0.13266964 0.87700003
-0.0028246166 0.13266964 0.87700003
-0.00094153889 0.13266964 0.87700003
0.00094261247 0.13282092 0.87800002
0.0028310583 0.1329722 0.87900007
0.0047237985 0.13312347 0.88000005
0.0066133179 0.13312347 0.88000005
0.0085124997 0.13327475 0.88100004
0.010427784 0.1335773 0.88300002
0.012323746 0.1335773 0.88300002
0.014203603 0.13342603 0.88200003
0.016115667 0.1335773 0.88300002
0.018011628 0.1335773 0.88300002
0.019885045 0.13342603 0.88200003
0.021778857 0.13342603 0.88200003
0.023672672 0.13342603 0.88200003
0.025566485 0.13342603 0.88200003
0.027491434 0.1335773 0.88300002
0.029387392 0.1335773 0.88300002
0.031318784 0.13372858 0.88400006
0.03329204 0.13403113 0.88600004
0.035194445 0.13403113 0.88600004
0.037138715 0.13418241 0.88700002
0.039087284 0.13433369 0.88800007
0.041040145 0.13448496 0.88900006
0.042948991 0.13448496 0.88900006
0.044857834 0.13448496 0.88900006
0.04676668 0.13448496 0.88900006
0.048785027 0.13478751 0.89100003
0.050698165 0.13478751 0.89100003
0.052611303 0.13478751 0.89100003
0.054585636 0.13493879 0.89200002
0.056564268 0.13509007 0.89300007
0.058416203 0.13493879 0.89200002
0.06039913 0.13509007 0.89300007
0.062316567 0.13509007 0.89300007
0.064233996 0.13509007 0.89300007
0.066151425 0.13509007 0.89300007
0.068068862 0.13509007 0.89300007
0.070143037 0.13539262 0.89500004
0.072064765 0.13539262 0.89500004
0.074069157 0.1355439 0.89600003
0.075993031 0.1355439 0.89600003
0.078090832 0.13584645 0.89800006
0.080108106 0.13599773 0.89900005
0.081947163 0.13584645 0.89800006
0.083875336 0.13584645 0.89800006
0.085899055 0.13599773 0.89900005
0.087927066 0.136149 0.90000004
0.089959368 0.13630028 0.90100002
0.091791987 0.136149 0.90000004
0.093932733 0.13645156 0.90200007
0.095975779 0.13660283 0.90300006
0.098023109 0.13675411 0.90400004
0.10007474 0.13690539 0.90500003
0.10213067 0.13705666 0.90600002
0.10419089 0.13720794 0.90700006
0.10637242 0.13751049 0.90900004
0.10832421 0.13751049 0.90900004
0.110276 0.13751049 0.90900004
0.11222779 0.13751049 0.90900004
0.11405396 0.13735922 0.90800005
0.11574809 0.13705666 0.90600002
0.11769343 0.13705666 0.90600002
0.11963878 0.13705666 0.90600002
0.12158412 0.13705666 0.90600002
0.12380217 0.13735922 0.90800005
0.1258903 0.13751049 0.90900004
0.12798272 0.13766177 0.91000003
0.12993665 0.13766177 0.91000003
0.13203554 0.13781305 0.91100007
0.13399161 0.13781305 0.91100007
0.13579847 0.13766177 0.91000003
0.1377524 0.13766177 0.91000003
0.13970634 0.13766177 0.91000003
0.14181596 0.13781305 0.91100007
0.14392984 0.13796432 0.91200006
0.14588808 0.13796432 0.91200006
0.14800841 0.1381156 0.91300005
0.15013304 0.13826688 0.91400003
0.15226197 0.13841815 0.91500002
0.15456375 0.13872071 0.91700006
0.15687412 0.13902326 0.91900003
0.16040301 0.14038475 0.92800003
0.16572051 0.143259 0.94700003
0.16846246 0.14386411 0.95100003
0.17140087 0.14462049 0.95600003
0.17381646 0.14492305 0.95800006
0.17605704 0.14507432 0.95900005
0.17774472 0.14477177 0.95700002
0.17942382 0.14446922 0.95500004
0.18147439 0.14446922 0.95500004
0.1837171 0.14462049 0.95600003
0.18615845 0.14492305 0.95800006
0.18919779 0.14567943 0.96300006
0.1922586 0.14643581 0.96800005
0.19514011 0.14704092 0.97200006
0.19763298 0.14734347 0.97400004
0.20013447 0.14764604 0.97600007
0.20223011 0.14764604 0.97600007
nan nan nan
nan nan nan
nan nan nan
nan nan nan
nan nan nan
nan nan nan
nan nan nan
nan nan nan
nan nan nan
nan nan nan
nan nan nan
nan nan nan
nan nan nan
nan nan nan
nan nan nan
nan nan nan
0.20519966 0.12737496 0.84200007
0.20651586 0.12707241 0.84000003
0.2075755 0.12661856 0.83700001
0.20887242 0.12631603 0.83500004
0.21016072 0.12601347 0.83300006
0.21144043 0.1257109 0.83100003
0.21271157 0.12540837 0.82900006
0.21371536 0.12495453 0.82600003
0.21496719 0.12465198 0.82400006
0.2162104 0.12434942 0.82200003
0.21717986 0.1238956 0.81900007
0.21813641 0.12344176 0.81600004
0.21908009 0.12298793 0.81300002
0.21973929 0.12238282 0.80900002
0.22092882 0.12208027 0.80700004
0.22183387 0.12162644 0.80400002
0.22328213 0.12147517 0.80300003
0.22444592 0.12117261 0.80100006
0.22588344 0.12102133 0.80000001
0.22731671 0.12087005 0.79900002
0.22874564 0.12071878 0.79800004
0.23017029 0.12056751 0.79700005
0.23129971 0.12026495 0.79500002
0.23212744 0.11981113 0.79200006
0.23323755 0.11950856 0.79000002
0.23493381 0.11950856 0.79000002
0.23633057 0.1193573 0.78900003
0.23802468 0.1193573 0.78900003
0.23941498 0.11920602 0.78800005
0.24110697 0.11920602 0.78800005
0.24249081 0.11905474 0.78700006
0.24449092 0.11920602 0.78800005
0.24587049 0.11905474 0.78700006
0.24724576 0.11890346 0.78600001
0.24893343 0.11890346 0.78600001
0.24998342 0.11860091 0.78400004
0.25038278 0.1179958 0.78000003
0.25044182 0.11723942 0.77500004
0.25080469 0.11663431 0.77100003
0.25147784 0.11618048 0.76800001
0.25279731 0.1160292 0.76700002
0.25444418 0.1160292 0.76700002
0.25575718 0.11587793 0.76600003
0.25706589 0.11572666 0.76500005
0.25870848 0.11572666 0.76500005
0.26001075 0.11557538 0.76400006
0.2613087 0.1154241 0.76300001
0.26294702 0.1154241 0.76300001
0.26389176 0.11512154 0.76100004
0.26517686 0.11497027 0.76000005
0.2678619 0.1154241 0.76300001
0.26985344 0.11557538 0.76400006
0.27220458 0.11587793 0.76600003
0.27456433 0.11618048 0.76800001
0.27693269 0.11648304 0.77000004
0.2793096 0.11678559 0.77200001
0.28096724 0.11678559 0.77200001
0.28225875 0.11663431 0.77100003
0.28391424 0.11663431 0.77100003
0.2855697 0.11663431 0.77100003
0.28685266 0.11648304 0.77000004
0.288506 0.11648304 0.77000004
0.28978249 0.11633176 0.76900005
0.29143369 0.11633176 0.76900005
0.2942282 0.11678559 0.77200001
0.29473606 0.11633176 0.76900005
0.29947054 0.11754197 0.77700001
0.30230165 0.1179958 0.78000003
0.30514556 0.11844964 0.78300005
0.3068268 0.11844964 0.78300005
0.30890206 0.11860091 0.78400004
0.31058544 0.11860091 0.78400004
0.31226885 0.11860091 0.78400004
0.31435266 0.11875218 0.78500003
0.31644082 0.11890346 0.78600001
0.3181285 0.11890346 0.78600001
0.31981617 0.11890346 0.78600001
0.32109481 0.11875218 0.78500003
0.32236916 0.11860091 0.78400004
0.32405257 0.11860091 0.78400004
0.32615143 0.11875218 0.78500003
0.32741937 0.11860091 0.78400004
0.32952249 0.11875218 0.78500003
0.3320519 0.11905474 0.78700006
0.33416578 0.11920602 0.78800005
0.33628398 0.1193573 0.78900003
0.33840647 0.11950856 0.79000002
0.34010273 0.11950856 0.79000002
0.34136638 0.1193573 0.78900003
0.34306049 0.1193573 0.78900003
0.34475464 0.1193573 0.78900003
0.34644875 0.1193573 0.78900003
0.34770161 0.11920602 0.78800005
0.34895021 0.11905474 0.78700006
0.35019448 0.11890346 0.78600001
0.35188219 0.11890346 0.78600001
nan nan nan
nan nan nan
0.35603696 0.11860091 0.78400004
0.35772038 0.11860091 0.78400004
0.35940376 0.11860091 0.78400004
0.36154771 0.11875218 0.78500003
0.36277053 0.11860091 0.78400004
0.36491877 0.11875218 0.78500003
0.36707133 0.11890346 0.78600001
0.36875901 0.11890346 0.78600001
0.37091804 0.11905474 0.78700006
0.37260786 0.11905474 0.78700006
0.37429771 0.11905474 0.78700006
0.37694299 0.1193573 0.78900003
0.37815723 0.11920602 0.78800005
0.38033125 0.1193573 0.78900003
0.38202536 0.1193573 0.78900003
0.38420585 0.11950856 0.79000002
0.38687909 0.11981113 0.79200006
0.39005154 0.12026495 0.79500002
0.39274412 0.12056751 0.79700005
0.39544526 0.12087005 0.79900002
0.39765793 0.12102133 0.80000001
0.39937565 0.12102133 0.80000001
0.40159479 0.12117261 0.80100006
0.40331468 0.12117261 0.80100006
0.4050346 0.12117261 0.80100006
0.40675449 0.12117261 0.80100006
0.40847436 0.12117261 0.80100006
0.41121846 0.12147517 0.80300003
0.41397119 0.12177772 0.80500007
nan nan nan
nan nan nan
nan nan nan
nan nan nan
nan nan nan
nan nan nan
nan nan nan
nan nan nan
nan nan nan
nan nan nan
nan nan nan
nan nan nan
nan nan nan
nan nan nan
nan nan nan
nan nan nan
nan nan nan
nan nan nan
nan nan nan
nan nan nan
nan nan nan
nan nan nan
nan nan nan
nan nan nan
nan nan nan
nan nan nan
nan nan nan
nan nan nan
nan nan nan
nan nan nan
nan nan nan
nan nan nan
nan nan nan
nan nan nan
nan nan nan
nan nan nan
nan nan nan
nan nan nan
nan nan nan
nan nan nan
nan nan nan
nan nan nan
-0.34179902 0.12365963 0.80600005
-0.3400684 0.12365963 0.80600005
-0.33749822 0.12335277 0.80400002
-0.33493665 0.12304593 0.80200005
-0.33279911 0.12289251 0.80100006
-0.33066589 0.12273908 0.80000001
nan nan nan
nan nan nan
nan nan nan
nan nan nan
nan nan nan
-0.33717829 0.12918289 0.84200007
-0.33298054 0.12826234 0.83600003
-0.33078933 0.12810892 0.83500004
-0.32860246 0.1279555 0.83400005
-0.32641983 0.12780207 0.83300006
-0.32385179 0.12749521 0.83100003
-0.32129237 0.12718837 0.82900006
-0.31951237 0.12718837 0.82900006
-0.31811562 0.12734179 0.83000004
-0.31671456 0.12749521 0.83100003
-0.31493026 0.12749521 0.83100003
-0.31352279 0.12764864 0.83200002
-0.31211102 0.12780207 0.83300006
-0.31106749 0.12810892 0.83500004
-0.30927458 0.12810892 0.83500004
-0.30674523 0.12780207 0.83300006
-0.30459049 0.12764864 0.83200002
-0.30244011 0.12749521 0.83100003
-0.30065581 0.12749521 0.83100003
-0.29851186 0.12734179 0.83000004
-0.29708719 0.12749521 0.83100003
-0.2953029 0.12749521 0.83100003
-0.29387179 0.12764864 0.83200002
-0.29243642 0.12780207 0.83300006
-0.29169455 0.12826234 0.83600003
-0.29024625 0.12841576 0.83700001
-0.28948295 0.12887603 0.84000003
-0.28836426 0.12918289 0.84200007
-0.28723702 0.12948973 0.84400004
-0.28610113 0.12979658 0.84600002
-0.28529271 0.13025685 0.84900004
-0.28447145 0.13071713 0.85200006
-0.28396899 0.13133082 0.85600007
-0.28410858 0.13225137 0.86200005
-0.28291255 0.13255821 0.86400002
-0.28138274 0.13271163 0.86500007
-0.28017169 0.13301848 0.86700004
-0.27863109 0.1331719 0.86800003
-0.27676734 0.1331719 0.86800003
-0.2749036 0.1331719 0.86800003
-0.27272528 0.13301848 0.86700004
-0.27055126 0.13286506 0.86600006
-0.26869181 0.13286506 0.86600006
-0.26652423 0.13271163 0.86500007
-0.26466691 0.13271163 0.86500007
-0.26250574 0.13255821 0.86400002
-0.26155564 0.13301848 0.86700004
-0.25969404 0.13301848 0.86700004
-0.2584272 0.13332532 0.86900002
-0.25656131 0.13332532 0.86900002
-0.25469539 0.13332532 0.86900002
-0.25282949 0.13332532 0.86900002
-0.25125238 0.13347876 0.87000006
-0.24909769 0.13332532 0.86900002
-0.24751632 0.13347876 0.87000006
-0.24593061 0.13363218 0.87100005
-0.24434063 0.13378561 0.87200004
-0.24274632 0.13393903 0.87300003
-0.24087185 0.13393903 0.87300003
-0.23899734 0.13393903 0.87300003
-0.23712286 0.13393903 0.87300003
-0.23551783 0.13409245 0.87400001
-0.23337388 0.13393903 0.87300003
-0.2314994 0.13393903 0.87300003
-0.22936188 0.13378561 0.87200004
-0.22748955 0.13378561 0.87200004
-0.22535846 0.13363218 0.87100005
-0.22323169 0.13347876 0.87000006
-0.22110918 0.13332532 0.86900002
-0.21974789 0.13363218 0.87100005
-0.2178777 0.13363218 0.87100005
-0.21600749 0.13363218 0.87100005
-0.21438314 0.13378561 0.87200004
-0.21251079 0.13378561 0.87200004
-0.21063846 0.13378561 0.87200004
-0.20852672 0.13363218 0.87100005
-0.20618199 0.13332532 0.86900002
-0.20431608 0.13332532 0.86900002
-0.20221722 0.1331719 0.86800003
-0.20012264 0.13301848 0.86700004
-0.19826104 0.13301848 0.86700004
-0.19639942 0.13301848 0.86700004
-0.19453783 0.13301848 0.86700004
-0.19267623 0.13301848 0.86700004
-0.19125478 0.13332532 0.86900002
-0.18938889 0.13332532 0.86900002
-0.18752298 0.13332532 0.86900002
-0.18565708 0.13332532 0.86900002
-0.18379118 0.13332532 0.86900002
-0.18192527 0.13332532 0.86900002
-0.18005939 0.13332532 0.86900002
-0.17819348 0.13332532 0.86900002
-0.17612468 0.1331719 0.86800003
-0.17426091 0.1331719 0.86800003
-0.17239717 0.1331719 0.86800003
-0.17053342 0.1331719 0.86800003
-0.16866966 0.1331719 0.86800003
-0.16699807 0.13332532 0.86900002
-0.16532221 0.13347876 0.87000006
-0.16345417 0.13347876 0.87000006
-0.16140038 0.13332532 0.86900002
-0.15990165 0.13363218 0.87100005
-0.15821289 0.13378561 0.87200004
-0.15651983 0.13393903 0.87300003
-0.15464534 0.13393903 0.87300003
-0.15259586 0.13378561 0.87200004
-0.15072353 0.13378561 0.87200004
-0.14885119 0.13378561 0.87200004
-0.14697884 0.13378561 0.87200004
-0.14494009 0.13363218 0.87100005
-0.14306989 0.13363218 0.87100005
-0.14119971 0.13363218 0.87100005
-0.13948947 0.13378561 0.87200004
-0.13745931 0.13363218 0.87100005
-0.1357448 0.13378561 0.87200004
-0.13371892 0.13363218 0.87100005
-0.13154598 0.13332532 0.86900002
-0.12968007 0.13332532 0.86900002
-0.12752001 0.13301848 0.86700004
-0.12565841 0.13301848 0.86700004
-0.1237968 0.13301848 0.86700004
-0.12193519 0.13301848 0.86700004
-0.12007358 0.13301848 0.86700004
-0.11848468 0.13332532 0.86900002
-0.11675297 0.13347876 0.87000006
-0.11501697 0.13363218 0.87100005
-0.11327668 0.13378561 0.87200004
-0.11140434 0.13378561 0.87200004
-0.10965761 0.13393903 0.87300003
-0.10765966 0.13378561 0.87200004
-0.10578731 0.13378561 0.87200004
-0.10391498 0.13378561 0.87200004
-0.10204263 0.13378561 0.87200004
-0.10017029 0.13378561 0.87200004
-0.098297946 0.13378561 0.87200004
-0.096315026 0.13363218 0.87100005
-0.094336398 0.13347876 0.87000006
-0.092574641 0.13363218 0.87100005
-0.090600312 0.13347876 0.87000006
-0.088630266 0.13332532 0.86900002
-0.086764358 0.13332532 0.86900002
-0.084800772 0.1331719 0.86800003
-0.082841471 0.13301848 0.86700004
-0.081073262 0.1331719 0.86800003
-0.079118252 0.13301848 0.86700004
-0.077345759 0.1331719 0.86800003
-0.075568959 0.13332532 0.86900002
-0.073872693 0.13363218 0.87100005
-0.072085157 0.13378561 0.87200004
-0.070212826 0.13378561 0.87200004
-0.06834048 0.13378561 0.87200004
-0.066468135 0.13378561 0.87200004
-0.064595789 0.13378561 0.87200004
-0.062651522 0.13363218 0.87100005
-0.06078133 0.13363218 0.87100005
-0.058843497 0.13347876 0.87000006
-0.056909956 0.13332532 0.86900002
-0.055044062 0.13332532 0.86900002
-0.053178158 0.13332532 0.86900002
-0.051371306 0.13347876 0.87000006
-0.049560159 0.13363218 0.87100005
-0.047635213 0.13347876 0.87000006
-0.045819771 0.13363218 0.87100005
-0.044050492 0.13393903 0.87300003
-0.042176004 0.13393903 0.87300003
-0.040301513 0.13393903 0.87300003
-0.038471043 0.13409245 0.87400001
-0.036636278 0.13424587 0.87500006
-0.034797218 0.13439929 0.87600005
-0.032953858 0.13455272 0.87700003
-0.031070784 0.13455272 0.87700003
-0.029154424 0.13439929 0.87600005
-0.027273495 0.13439929 0.87600005
-0.025392564 0.13439929 0.87600005
-0.023511633 0.13439929 0.87600005
-0.021630703 0.13439929 0.87600005
-0.019772317 0.13455272 0.87700003
-0.017909637 0.13470614 0.87800002
-0.016024413 0.13470614 0.87800002
-0.014139188 0.13470614 0.87800002
-0.012253962 0.13470614 0.87800002
-0.010368737 0.13470614 0.87800002
-0.0084835123 0.13470614 0.87800002
-0.0065982873 0.13470614 0.87800002
-0.0047130622 0.13470614 0.87800002
-0.0028246166 0.13455272 0.87700003
-0.00094261247 0.13470614 0.87800002
0.00094261247 0.13470614 0.87800002
0.0028310583 0.13485958 0.87900007
0.0047237985 0.135013 0.88000005
0.0066133179 0.135013 0.88000005
0.0085028373 0.135013 0.88000005
0.010415975 0.13531983 0.88200003
0.012323746 0.13547325 0.88300002
0.014219707 0.13547325 0.88300002
0.016115667 0.13547325 0.88300002
0.018011628 0.13547325 0.88300002
0.01990759 0.13547325 0.88300002
0.02180355 0.13547325 0.88300002
0.023699511 0.13547325 0.88300002
0.025595471 0.13547325 0.88300002
0.027522568 0.13562669 0.88400006
0.029453956 0.13578011 0.88500005
0.031389639 0.13593353 0.88600004
0.033329617 0.13608696 0.88700002
0.035234168 0.13608696 0.88700002
0.037222456 0.1363938 0.88900006
0.039131302 0.1363938 0.88900006
0.041086309 0.13654722 0.89000005
0.042997301 0.13654722 0.89000005
0.044958748 0.13670065 0.89100003
0.046871889 0.13670065 0.89100003
0.048894536 0.1370075 0.89300007
0.050811969 0.1370075 0.89300007
0.052729398 0.1370075 0.89300007
0.054646835 0.1370075 0.89300007
0.056627609 0.13716093 0.89400005
0.058481697 0.1370075 0.89300007
0.06039913 0.1370075 0.89300007
0.062316567 0.1370075 0.89300007
0.064233996 0.1370075 0.89300007
0.066225506 0.13716093 0.89400005
0.068221308 0.13731435 0.89500004
0.070143037 0.13731435 0.89500004
0.072145283 0.13746777 0.89600003
0.074069157 0.13746777 0.89600003
0.076077841 0.13762119 0.89700001
0.078090832 0.13777462 0.89800006
0.080108106 0.13792804 0.89900005
0.082038417 0.13792804 0.89900005
0.083968736 0.13792804 0.89900005
0.085994601 0.13808146 0.90000004
0.088122465 0.13838832 0.90200007
0.090059213 0.13838832 0.90200007
0.091995977 0.13838832 0.90200007
0.09403687 0.13854174 0.90300006
0.096082062 0.13869517 0.90400004
0.098023109 0.13869517 0.90400004
0.10018532 0.13900201 0.90600002
0.10213067 0.13900201 0.90600002
0.10419089 0.13915543 0.90700006
0.10637242 0.13946228 0.90900004
0.10844338 0.1396157 0.91000003
0.11039732 0.1396157 0.91000003
0.11235125 0.1396157 0.91000003
0.11430518 0.1396157 0.91000003
0.11613136 0.13946228 0.90900004
0.11795325 0.13930885 0.90800005
0.11990289 0.13930885 0.90800005
0.12212092 0.1396157 0.91000003
0.12407486 0.1396157 0.91000003
0.12630577 0.13992256 0.91200006
0.12840465 0.14007598 0.91300005
0.13050781 0.1402294 0.91400003
0.13247034 0.1402294 0.91400003
0.13443285 0.1402294 0.91400003
0.13609692 0.13992256 0.91200006
0.13805516 0.13992256 0.91200006
0.1400134 0.13992256 0.91200006
0.14212729 0.14007598 0.91300005
0.14408766 0.14007598 0.91300005
0.14604804 0.14007598 0.91300005
0.14817052 0.1402294 0.91400003
0.1502973 0.14038283 0.91500002
0.15242839 0.14053625 0.91600007
0.15473232 0.14084309 0.91800004
0.15738623 0.1414568 0.92200005
0.16161296 0.1434513 0.93500006
0.16554551 0.14513896 0.94600004
0.16828531 0.14575265 0.95000005
0.17122158 0.14651978 0.95500004
0.17345358 0.1466732 0.95600003
0.17550628 0.1466732 0.95600003
0.17737326 0.14651978 0.95500004
0.17923595 0.14636636 0.95400006
0.18128435 0.14636636 0.95400006
0.18314059 0.14621294 0.95300007
0.18518685 0.14621294 0.95300007
0.18742958 0.14636636 0.95400006
0.19007383 0.14682662 0.95700002
0.19373478 0.14805402 0.96500003
0.19702427 0.14897457 0.97100008
0.19931424 0.14912799 0.97200006
0.20160849 0.14928141 0.97300005
nan nan nan
nan nan nan
nan nan nan
nan nan nan
nan nan nan
nan nan nan
nan nan nan
0.19969858 0.13654722 0.89000005
nan nan nan
nan nan nan
nan nan nan
nan nan nan
nan nan nan
nan nan nan
nan nan nan
nan nan nan
0.20519966 0.12918289 0.84200007
0.20627002 0.12872261 0.83900005
0.20707951 0.12810892 0.83500004
0.20837213 0.12780207 0.83300006
0.20965612 0.12749521 0.83100003
0.21118599 0.12734179 0.83000004
0.21245499 0.12703496 0.82800007
0.21345663 0.12657468 0.82500005
0.2147063 0.12626782 0.82300001
0.21568434 0.12580757 0.82000005
0.21638434 0.12519386 0.81600004
0.21733445 0.12473359 0.81300002
0.2180022 0.12411989 0.80900002
0.21919605 0.12381305 0.80700004
0.2203813 0.1235062 0.80500007
0.22155796 0.12319935 0.80300003
0.22272602 0.12289251 0.80100006
0.22416571 0.12273908 0.80000001
0.22560109 0.12258565 0.79900002
0.2270322 0.12243223 0.79800004
0.22817235 0.12212539 0.79600006
0.2295927 0.12197196 0.79500002
0.23071784 0.12166511 0.79300004
0.23183435 0.12135826 0.79100001
0.23294231 0.12105142 0.78900003
0.23463643 0.12105142 0.78900003
0.23603104 0.120898 0.78800005
0.23742133 0.12074458 0.78700006
0.23911116 0.12074458 0.78700006
0.24049501 0.12059114 0.78600001
0.24218269 0.12059114 0.78600001
0.24387038 0.12059114 0.78600001
0.24524565 0.12043773 0.78500003
0.24630208 0.12013088 0.78300005
0.24766661 0.11997746 0.78200006
0.24838914 0.11951718 0.77900004
0.24845676 0.11875007 0.77400005
0.24914922 0.11828979 0.77100003
0.2498288 0.11782952 0.76800001
0.2511504 0.11767609 0.76700002
0.25246769 0.11752267 0.76600003
0.25411242 0.11752267 0.76600003
0.25542331 0.11736925 0.76500005
0.25706589 0.11736925 0.76500005
0.25837031 0.11721583 0.76400006
0.25967041 0.1170624 0.76300001
0.2613087 0.1170624 0.76300001
0.26260239 0.11690897 0.76200002
0.26354501 0.11660213 0.76000005
0.26482797 0.11644871 0.75900006
0.26645768 0.11644871 0.75900006
0.26879379 0.11675555 0.76100004
0.27113849 0.1170624 0.76300001
0.27313432 0.11721583 0.76400006
0.27513441 0.11736925 0.76500005
0.2775006 0.11767609 0.76700002
0.27951145 0.11782952 0.76800001
0.28116047 0.11782952 0.76800001
0.28280953 0.11782952 0.76800001
0.28445855 0.11782952 0.76800001
0.28573504 0.11767609 0.76700002
nan nan nan
0.28902882 0.11767609 0.76700002
0.29029673 0.11752267 0.76600003
0.29156035 0.11736925 0.76500005
0.29281968 0.11721583 0.76400006
0.29484555 0.11736925 0.76500005
0.29687572 0.11752267 0.76600003
0.29891014 0.11767609 0.76700002
0.30134076 0.11798295 0.76900005
0.30417395 0.11844321 0.77200001
0.3074162 0.11905691 0.77600002
0.31027734 0.11951718 0.77900004
0.31315133 0.11997746 0.78200006
0.31563562 0.1202843 0.78400004
0.31772375 0.12043773 0.78500003
0.31900239 0.1202843 0.78400004
0.3206858 0.1202843 0.78400004
0.32195798 0.12013088 0.78300005
0.32363924 0.12013088 0.78300005
0.32573596 0.1202843 0.78400004
0.32700172 0.12013088 0.78300005
nan nan nan
nan nan nan
nan nan nan
nan nan nan
nan nan nan
nan nan nan
nan nan nan
nan nan nan
0.34344375 0.12059114 0.78600001
nan nan nan
nan nan nan
0.34762004 0.1202843 0.78400004
0.34885788 0.12013088 0.78300005
0.35053912 0.12013088 0.78300005
0.35177052 0.11997746 0.78200006
0.35344964 0.11997746 0.78200006
0.35512874 0.11997746 0.78200006
0.35635155 0.11982403 0.78100002
0.35848692 0.11997746 0.78200006
0.36016601 0.11997746 0.78200006
0.36184511 0.11997746 0.78200006
0.36398906 0.12013088 0.78300005
0.36613733 0.1202843 0.78400004
0.36782071 0.1202843 0.78400004
0.36997542 0.12043773 0.78500003
0.37166095 0.12043773 0.78500003
0.37334648 0.12043773 0.78500003
0.37550974 0.12059114 0.78600001
0.37719741 0.12059114 0.78600001
0.37888512 0.12059114 0.78600001
0.38105702 0.12074458 0.78700006
0.38274685 0.12074458 0.78700006
0.38492516 0.120898 0.78800005
0.3875984 0.12120484 0.79000002
0.39028022 0.1215117 0.79200006
0.39297062 0.12181854 0.79400003
0.39517257 0.12197196 0.79500002
0.39787802 0.12227881 0.79700005
0.40009066 0.12243223 0.79800004
0.40180415 0.12243223 0.79800004
0.4035176 0.12243223 0.79800004
0.40523106 0.12243223 0.79800004
0.40694448 0.12243223 0.79800004
0.40865794 0.12243223 0.79800004
0.4113999 0.12273908 0.80000001
nan nan nan
nan nan nan
nan nan nan
nan nan nan
nan nan nan
nan nan nan
nan nan nan
nan nan nan
nan nan nan
nan nan nan
nan nan nan
nan nan nan
nan nan nan
nan nan nan
nan nan nan
nan nan nan
nan nan nan
nan nan nan
nan nan nan
nan nan nan
nan nan nan
nan nan nan
nan nan nan
nan nan nan
nan nan nan
nan nan nan
nan nan nan
nan nan nan
nan nan nan
nan nan nan
nan nan nan
nan nan nan
nan nan nan
nan nan nan
nan nan nan
nan nan nan
nan nan nan
nan nan nan
nan nan nan
nan nan nan
nan nan nan
nan nan nan
-0.34179902 0.12539025 0.80600005
-0.33964649 0.12523468 0.80500007
-0.33707842 0.12492353 0.80300003
-0.33451903 0.12461239 0.80100006
nan nan nan
nan nan nan
nan nan nan
nan nan nan
nan nan nan
nan nan nan
-0.34220698 0.13223536 0.85000002
-0.33797917 0.13130194 0.84400004
-0.33377716 0.13036852 0.83800006
-0.33118549 0.13005736 0.83600003
-0.32899645 0.1299018 0.83500004
-0.32602796 0.12943509 0.83200002
-0.32307237 0.12896837 0.82900006
-0.32051724 0.12865724 0.82700002
-0.3187415 0.12865724 0.82700002
-0.31696579 0.12865724 0.82700002
-0.31595233 0.12896837 0.82900006
-0.31417233 0.12896837 0.82900006
-0.31314594 0.12927952 0.83100003
-0.31211102 0.12959066 0.83300006
-0.31069493 0.12974623 0.83400005
-0.30853382 0.12959066 0.83300006
-0.30637696 0.12943509 0.83200002
-0.3042244 0.12927952 0.83100003
-0.30171224 0.12896837 0.82900006
-0.29993221 0.12896837 0.82900006
-0.29815221 0.12896837 0.82900006
-0.29637218 0.12896837 0.82900006
-0.29494753 0.12912394 0.83000004
-0.29316539 0.12912394 0.83000004
-0.29173428 0.12927952 0.83100003
-0.29029888 0.12943509 0.83200002
-0.28885919 0.12959066 0.83300006
-0.28741524 0.12974623 0.83400005
-0.28699437 0.13036852 0.83800006
-0.28689668 0.13114637 0.84300005
-0.28610113 0.13161308 0.84600002
-0.28562877 0.13223536 0.85000002
-0.28447145 0.13254651 0.85200006
-0.28363726 0.13301322 0.85500002
-0.2831198 0.13363551 0.85900003
-0.28225768 0.13410223 0.86200005
-0.28105742 0.13441336 0.86400002
-0.2795254 0.13456894 0.86500007
-0.27798909 0.13472451 0.86600006
-0.27612966 0.13472451 0.86600006
-0.27395347 0.13456894 0.86500007
-0.27178159 0.13441336 0.86400002
-0.26930159 0.13410223 0.86200005
-0.26745075 0.13410223 0.86200005
-0.26559985 0.13410223 0.86200005
-0.263749 0.13410223 0.86200005
-0.2618981 0.13410223 0.86200005
-0.26034892 0.13425779 0.86300004
-0.25909498 0.13456894 0.86500007
-0.25783244 0.13488008 0.86700004
-0.25597084 0.13488008 0.86700004
-0.2541092 0.13488008 0.86700004
-0.2522476 0.13488008 0.86700004
-0.25096357 0.13519122 0.86900002
-0.24909769 0.13519122 0.86900002
-0.2472318 0.13519122 0.86900002
-0.24536589 0.13519122 0.86900002
-0.24349999 0.13519122 0.86900002
-0.24219021 0.13550237 0.87100005
-0.24032003 0.13550237 0.87100005
-0.23844983 0.13550237 0.87100005
-0.23657964 0.13550237 0.87100005
-0.23470943 0.13550237 0.87100005
-0.23283924 0.13550237 0.87100005
-0.23123424 0.13565794 0.87200004
-0.22909886 0.13550237 0.87100005
-0.22696778 0.13534679 0.87000006
-0.22484098 0.13519122 0.86900002
-0.22297509 0.13519122 0.86900002
-0.22060031 0.13488008 0.86700004
-0.218991 0.13503565 0.86800003
-0.21712725 0.13503565 0.86800003
-0.21551149 0.13519122 0.86900002
-0.21364558 0.13519122 0.86900002
-0.21177968 0.13519122 0.86900002
-0.20991379 0.13519122 0.86900002
-0.20804788 0.13519122 0.86900002
-0.20594473 0.13503565 0.86800003
-0.20384586 0.13488008 0.86700004
-0.20175128 0.13472451 0.86600006
-0.19989182 0.13472451 0.86600006
-0.19780369 0.13456894 0.86500007
-0.19571984 0.13441336 0.86400002
-0.19408908 0.13456894 0.86500007
