# .PCD v0.7 - Point Cloud Data file format
VERSION 0.7
FIELDS x y z
SIZE 4 4 4
TYPE F F F
COUNT 1 1 1
WIDTH 1545
HEIGHT 1
VIEWPOINT 0 0 0 1 0 0 0
POINTS 1545
DATA ascii
-0.29840448 0.11580944 0.85000002
-0.29657939 0.11580944 0.85000002
-0.29475427 0.11580944 0.85000002
-0.29327381 0.11594569 0.85100001
-0.29178903 0.11608194 0.85200006
-0.29098061 0.11649067 0.85500002
-0.28982112 0.11676317 0.85700005
-0.2889891 0.11717191 0.86000001
-0.28714252 0.11717191 0.86000001
-0.28595942 0.1174444 0.86200005
-0.28410858 0.1174444 0.86200005
-0.28258511 0.11758064 0.86300004
-0.28105742 0.11771689 0.86400002
-0.27984855 0.11798939 0.86600006
-0.27831009 0.11812563 0.86700004
-0.2770862 0.11839812 0.86900002
-0.27553701 0.11853438 0.87000006
-0.27461267 0.11894311 0.87300003
-0.27336299 0.11921561 0.87500006
-0.27210474 0.1194881 0.87700003
-0.27052978 0.11962434 0.87800002
-0.2692565 0.11989684 0.88000005
-0.26888612 0.12057807 0.88500005
-0.26728755 0.12071431 0.88600004
-0.26568466 0.12085056 0.88700002
-0.26378012 0.12085056 0.88700002
-0.26217082 0.12098681 0.88800007
-0.2602641 0.12098681 0.88800007
-0.25835744 0.12098681 0.88800007
-0.25645071 0.12098681 0.88800007
-0.25454402 0.12098681 0.88800007
-0.25292185 0.12112305 0.88900006
-0.25101298 0.12112305 0.88900006
-0.24910416 0.12112305 0.88900006
-0.24719529 0.12112305 0.88900006
-0.24501055 0.12098681 0.88800007
-0.2433776 0.12112305 0.88900006
-0.24119715 0.12098681 0.88800007
-0.23902096 0.12085056 0.88700002
-0.23765108 0.12112305 0.88900006
-0.23574224 0.12112305 0.88900006
-0.23435944 0.12139554 0.89100003
-0.23244631 0.12139554 0.89100003
-0.2307919 0.12153179 0.89200002
-0.22887662 0.12153179 0.89200002
-0.22721577 0.12166804 0.89300007
-0.22504604 0.12153179 0.89200002
-0.22313076 0.12153179 0.89200002
-0.22096747 0.12139554 0.89100003
-0.21905433 0.12139554 0.89100003
-0.21738489 0.12153179 0.89200002
-0.21571119 0.12166804 0.89300007
-0.21379375 0.12166804 0.89300007
-0.21187632 0.12166804 0.89300007
-0.20995888 0.12166804 0.89300007
-0.20804146 0.12166804 0.89300007
-0.20589319 0.12153179 0.89200002
-0.2039779 0.12153179 0.89200002
-0.20183609 0.12139554 0.89100003
-0.19992296 0.12139554 0.89100003
-0.19800982 0.12139554 0.89100003
-0.1958766 0.1212593 0.89000005
-0.1939656 0.1212593 0.89000005
-0.19183882 0.12112305 0.88900006
-0.18992998 0.12112305 0.88900006
-0.18823263 0.1212593 0.89000005
-0.18632163 0.1212593 0.89000005
-0.18420345 0.12112305 0.88900006
-0.18249966 0.1212593 0.89000005
-0.18058866 0.1212593 0.89000005
-0.17847691 0.12112305 0.88900006
-0.17656808 0.12112305 0.88900006
-0.17465922 0.12112305 0.88900006
-0.17275038 0.12112305 0.88900006
-0.17064936 0.12098681 0.88800007
-0.16874267 0.12098681 0.88800007
-0.16702385 0.12112305 0.88900006
-0.16511501 0.12112305 0.88900006
-0.16320616 0.12112305 0.88900006
-0.16111588 0.12098681 0.88800007
-0.15938847 0.12112305 0.88900006
-0.15747963 0.12112305 0.88900006
-0.15539579 0.12098681 0.88800007
-0.1534891 0.12098681 0.88800007
-0.1514117 0.12085056 0.88700002
-0.14950715 0.12085056 0.88700002
-0.147769 0.12098681 0.88800007
-0.14602657 0.12112305 0.88900006
-0.14395562 0.12098681 0.88800007
-0.14204891 0.12098681 0.88800007
-0.14030004 0.12112305 0.88900006
-0.1383912 0.12112305 0.88900006
-0.13648236 0.12112305 0.88900006
-0.1345735 0.12112305 0.88900006
-0.13251543 0.12098681 0.88800007
-0.13075581 0.12112305 0.88900006
-0.12884697 0.12112305 0.88900006
-0.1270809 0.1212593 0.89000005
-0.12516992 0.1212593 0.89000005
-0.12325893 0.1212593 0.89000005
-0.12148429 0.12139554 0.89100003
-0.11983955 0.12166804 0.89300007
-0.11779006 0.12153179 0.89200002
-0.11574487 0.12139554 0.89100003
-0.11395948 0.12153179 0.89200002
-0.11216981 0.12166804 0.89300007
nan nan nan
nan nan nan
nan nan nan
-0.10450009 0.12166804 0.89300007
-0.10258266 0.12166804 0.89300007
-0.10066522 0.12166804 0.89300007
-0.098526619 0.12139554 0.89100003
-0.09672191 0.12153179 0.89200002
-0.094806634 0.12153179 0.89200002
-0.092787206 0.12139554 0.89100003
-0.090772077 0.1212593 0.89000005
-0.08876124 0.12112305 0.88900006
-0.086754709 0.12098681 0.88800007
-0.084848009 0.12098681 0.88800007
-0.082847908 0.12085056 0.88700002
-0.080852099 0.12071431 0.88600004
-0.078949705 0.12071431 0.88600004
-0.077134259 0.12085056 0.88700002
-0.075399339 0.12112305 0.88900006
-0.073490493 0.12112305 0.88900006
-0.071662173 0.1212593 0.89000005
-0.069751181 0.1212593 0.89000005
-0.067840189 0.1212593 0.89000005
-0.065929189 0.1212593 0.89000005
-0.063946277 0.12112305 0.88900006
-0.062037431 0.12112305 0.88900006
-0.060128585 0.12112305 0.88900006
-0.058154251 0.12098681 0.88800007
-0.056184214 0.12085056 0.88700002
-0.054279663 0.12085056 0.88700002
-0.052434161 0.12098681 0.88800007
-0.050527468 0.12098681 0.88800007
-0.048675522 0.12112305 0.88900006
-0.04676668 0.12112305 0.88900006
-0.044857834 0.12112305 0.88900006
-0.042997301 0.1212593 0.89000005
-0.041132472 0.12139554 0.89100003
-0.03917532 0.1212593 0.89000005
-0.037306197 0.12139554 0.89100003
-0.035432782 0.12153179 0.89200002
-0.033479918 0.12139554 0.89100003
-0.031602211 0.12153179 0.89200002
-0.029686924 0.12153179 0.89200002
-0.027771641 0.12153179 0.89200002
-0.025856355 0.12153179 0.89200002
-0.02394107 0.12153179 0.89200002
-0.022025784 0.12153179 0.89200002
-0.020087954 0.12139554 0.89100003
-0.018174814 0.12139554 0.89100003
-0.016279927 0.12153179 0.89200002
-0.014380747 0.12166804 0.89300007
-0.012435399 0.12139554 0.89100003
-0.01053407 0.12153179 0.89200002
-0.0086187841 0.12153179 0.89200002
-0.0067034992 0.12153179 0.89200002
-0.0047882139 0.12153179 0.89200002
-0.0028697075 0.12139554 0.89100003
-0.00095549558 0.1212593 0.89000005
0.00095656916 0.12139554 0.89100003
0.0028697075 0.12139554 0.89100003
0.0047828457 0.12139554 0.89100003
0.0066959839 0.12139554 0.89100003
0.0086187841 0.12153179 0.89200002
0.01053407 0.12153179 0.89200002
0.012449356 0.12153179 0.89200002
0.014380747 0.12166804 0.89300007
0.016298179 0.12166804 0.89300007
0.018215612 0.12166804 0.89300007
0.020133045 0.12166804 0.89300007
0.022075169 0.12180429 0.89400005
0.023967911 0.12166804 0.89300007
0.025885344 0.12166804 0.89300007
0.027802775 0.12166804 0.89300007
0.029720206 0.12166804 0.89300007
0.031637643 0.12166804 0.89300007
0.033555072 0.12166804 0.89300007
0.035472505 0.12166804 0.89300007
0.037431806 0.12180429 0.89400005
0.039351389 0.12180429 0.89400005
0.041270968 0.12180429 0.89400005
0.04323886 0.12194053 0.89500004
0.045211043 0.12207678 0.89600003
0.047134917 0.12207678 0.89600003
0.049058791 0.12207678 0.89600003
0.050982665 0.12207678 0.89600003
0.052906539 0.12207678 0.89600003
0.054830417 0.12207678 0.89600003
0.056754291 0.12207678 0.89600003
0.058678161 0.12207678 0.89600003
0.060466766 0.12180429 0.89400005
0.062316567 0.12166804 0.89300007
0.064233996 0.12166804 0.89300007
0.066151425 0.12166804 0.89300007
0.068068862 0.12166804 0.89300007
0.070064664 0.12180429 0.89400005
0.071984246 0.12180429 0.89400005
0.074069157 0.12207678 0.89600003
0.075993031 0.12207678 0.89600003
0.077916905 0.12207678 0.89600003
0.079840779 0.12207678 0.89600003
0.081673399 0.12194053 0.89500004
0.083595127 0.12194053 0.89500004
0.085612401 0.12207678 0.89600003
0.087438583 0.12194053 0.89500004
0.089260459 0.12180429 0.89400005
0.091384023 0.12207678 0.89600003
0.093307897 0.12207678 0.89600003
0.095338061 0.12221302 0.89700001
0.097264074 0.12221302 0.89700001
0.099190101 0.12221302 0.89700001
0.10122886 0.12234928 0.89800006
0.10327189 0.12248552 0.89900005
0.10531922 0.12262176 0.90000004
0.10725169 0.12262176 0.90000004
0.10906284 0.12248552 0.89900005
0.11099316 0.12248552 0.89900005
0.11304908 0.12262176 0.90000004
0.11498155 0.12262176 0.90000004
0.1167841 0.12248552 0.89900005
0.11884648 0.12262176 0.90000004
0.12077894 0.12262176 0.90000004
0.12284774 0.12275801 0.90100002
0.12492085 0.12289426 0.90200007
0.12685761 0.12289426 0.90200007
0.12879436 0.12289426 0.90200007
0.13087605 0.12303051 0.90300006
0.13281496 0.12303051 0.90300006
0.13490309 0.12316675 0.90400004
0.13699552 0.123303 0.90500003
0.13893872 0.123303 0.90500003
0.1410376 0.12343924 0.90600002
0.14298293 0.12343924 0.90600002
0.14492828 0.12343924 0.90600002
0.14703575 0.12357549 0.90700006
0.14898324 0.12357549 0.90700006
0.15109713 0.12371174 0.90800005
0.15304677 0.12371174 0.90800005
0.15516712 0.12384798 0.90900004
0.15729176 0.12398423 0.91000003
0.15942068 0.12412048 0.91100007
0.1615539 0.12425672 0.91200006
0.16387071 0.12452921 0.91400003
nan nan nan
nan nan nan
0.18108788 0.13284025 0.97500002
0.18374503 0.13324898 0.97800004
0.18584497 0.13324898 0.97800004
0.18813707 0.13338523 0.97900003
0.19023916 0.13338523 0.97900003
0.19253772 0.13352147 0.98000002
0.1952378 0.13393022 0.98300004
0.19775002 0.13420272 0.98500007
0.20047371 0.13461144 0.98800004
0.20259513 0.13461144 0.98800004
0.20492375 0.13474768 0.98900002
0.20725664 0.13488394 0.99000007
0.20980535 0.13515644 0.99200004
nan nan nan
nan nan nan
nan nan nan
nan nan nan
nan nan nan
nan nan nan
0.20296872 0.12207678 0.89600003
0.20466393 0.12194053 0.89500004
0.20589319 0.12153179 0.89200002
0.2075755 0.12139554 0.89100003
0.20901842 0.12112305 0.88900006
0.20997821 0.12057807 0.88500005
0.21020259 0.11962434 0.87800002
0.21088003 0.11894311 0.87300003
0.21177968 0.11839812 0.86900002
0.21290803 0.11798939 0.86600006
0.2135275 0.11730815 0.86100006
0.21362521 0.11635443 0.85400003
0.2144497 0.11580944 0.85000002
0.21576592 0.11553695 0.84800005
0.21707356 0.11526445 0.84600002
0.2183726 0.11499196 0.84400004
0.21966308 0.11471947 0.84200007
0.22041887 0.11417449 0.83800006
0.22115752 0.11362951 0.83400005
0.22214627 0.11322076 0.83100003
0.22285269 0.11267577 0.82700002
0.2240852 0.11240329 0.82500005
0.22530906 0.11213079 0.82300001
0.22652438 0.1118583 0.82100004
0.22773109 0.11158581 0.81900007
0.22864904 0.11117706 0.81600004
0.2298364 0.11090457 0.81400001
0.23101522 0.11063208 0.81200004
0.23247208 0.11049584 0.81100005
0.23421343 0.11049584 0.81100005
0.23566388 0.11035959 0.81000006
0.23710997 0.11022334 0.80900002
0.23855183 0.1100871 0.80800003
0.23998936 0.10995085 0.80700004
0.24142261 0.10981461 0.80600005
0.24285156 0.10967836 0.80500007
0.24427618 0.10954211 0.80400002
0.24569656 0.10940586 0.80300003
0.24711262 0.10926962 0.80200005
0.24821413 0.10899712 0.80000001
0.24993186 0.10899712 0.80000001
0.25102049 0.10872463 0.79800004
0.25210053 0.10845214 0.79600006
0.25380969 0.10845214 0.79600006
0.25519782 0.10831589 0.79500002
0.25625855 0.1080434 0.79300004
0.25796127 0.1080434 0.79300004
0.25966397 0.1080434 0.79300004
0.2613667 0.1080434 0.79300004
0.26273766 0.10790715 0.79200006
0.26443824 0.10790715 0.79200006
0.26613879 0.10790715 0.79200006
0.26783937 0.10790715 0.79200006
0.26919961 0.1077709 0.79100001
0.27055553 0.10763466 0.79000002
0.27225181 0.10763466 0.79000002
0.27394807 0.10763466 0.79000002
0.27529547 0.10749841 0.78900003
0.27698958 0.10749841 0.78900003
0.27868372 0.10749841 0.78900003
0.28108853 0.1077709 0.79100001
0.28314447 0.10790715 0.79200006
0.28556433 0.10817964 0.79400003
0.28799281 0.10845214 0.79600006
0.29006591 0.10858838 0.79700005
0.29214332 0.10872463 0.79800004
0.29385677 0.10872463 0.79800004
0.29557022 0.10872463 0.79800004
0.29728365 0.10872463 0.79800004
0.29862243 0.10858838 0.79700005
0.30071056 0.10872463 0.79800004
0.30318198 0.10899712 0.80000001
0.30604309 0.10940586 0.80300003
0.30815056 0.10954211 0.80400002
0.31064773 0.10981461 0.80600005
0.31315348 0.1100871 0.80800003
0.31527811 0.11022334 0.80900002
0.31701517 0.11022334 0.80900002
0.31954026 0.11049584 0.81100005
0.32247007 0.11090457 0.81400001
0.32541281 0.11131331 0.81700003
0.3283684 0.11172205 0.82000005
0.32932389 0.11144955 0.81800002
0.33067554 0.11131331 0.81700003
0.33324358 0.11158581 0.81900007
0.33459309 0.11144955 0.81800002
0.33634946 0.11144955 0.81800002
0.33810586 0.11144955 0.81800002
0.34027776 0.11158581 0.81900007
0.34203631 0.11158581 0.81900007
0.34337503 0.11144955 0.81800002
0.3442876 0.11117706 0.81600004
0.34519157 0.11090457 0.81400001
0.34651315 0.11076833 0.81300002
0.3474021 0.11049584 0.81100005
0.34871295 0.11035959 0.81000006
0.35001948 0.11022334 0.80900002
0.35175654 0.11022334 0.80900002
0.35393062 0.11035959 0.81000006
0.3561089 0.11049584 0.81100005
0.35873273 0.11076833 0.81300002
nan nan nan
nan nan nan
nan nan nan
0.36796457 0.11144955 0.81800002
0.36972097 0.11144955 0.81800002
0.37056911 0.11117706 0.81600004
0.37140864 0.11090457 0.81400001
0.37223959 0.11063208 0.81200004
0.37352255 0.11049584 0.81100005
0.37526393 0.11049584 0.81100005
0.37607554 0.11022334 0.80900002
0.37734559 0.1100871 0.80800003
0.37954968 0.11022334 0.80900002
0.38128674 0.11022334 0.80900002
0.3830238 0.11022334 0.80900002
0.3842853 0.1100871 0.80800003
0.38649794 0.11022334 0.80900002
0.38919482 0.11049584 0.81100005
0.39238229 0.11090457 0.81400001
0.39606684 0.11144955 0.81800002
0.39830962 0.11158581 0.81900007
0.40202206 0.11213079 0.82300001
0.40477049 0.11240329 0.82500005
0.40703467 0.11253953 0.82600003
0.40880823 0.11253953 0.82600003
0.41107887 0.11267577 0.82700002
0.41385305 0.11294827 0.82900006
0.41613442 0.11308452 0.83000004
0.41842011 0.11322076 0.83100003
0.42273271 0.113902 0.83600003
0.4260512 0.11431073 0.83900005
nan nan nan
nan nan nan
nan nan nan
nan nan nan
nan nan nan
nan nan nan
nan nan nan
nan nan nan
nan nan nan
nan nan nan
nan nan nan
nan nan nan
nan nan nan
nan nan nan
nan nan nan
nan nan nan
nan nan nan
nan nan nan
nan nan nan
nan nan nan
nan nan nan
nan nan nan
nan nan nan
nan nan nan
nan nan nan
nan nan nan
nan nan nan
nan nan nan
nan nan nan
nan nan nan
nan nan nan
nan nan nan
nan nan nan
nan nan nan
nan nan nan
nan nan nan
nan nan nan
nan nan nan
nan nan nan
nan nan nan
nan nan nan
nan nan nan
nan nan nan
nan nan nan
nan nan nan
-0.34052682 0.11113004 0.80300003
-0.3400684 0.11154522 0.80600005
-0.33833778 0.11154522 0.80600005
-0.3374424 0.111822 0.80800003
-0.33612293 0.1119604 0.80900002
-0.33438587 0.1119604 0.80900002
-0.33306 0.1120988 0.81000006
-0.33172983 0.11223719 0.81100005
-0.32958156 0.1120988 0.81000006
-0.3282471 0.11223719 0.81100005
-0.32690832 0.11237558 0.81200004
-0.32476437 0.11223719 0.81100005
nan nan nan
-0.33078933 0.11555863 0.83500004
-0.3309665 0.1162506 0.84000003
-0.33033845 0.11666578 0.84300005
-0.32891807 0.11680418 0.84400004
-0.32749343 0.11694257 0.84500003
-0.32529363 0.11680418 0.84400004
-0.3238647 0.11694257 0.84500003
-0.32243145 0.11708096 0.84600002
-0.32061493 0.11708096 0.84600002
-0.31842157 0.11694257 0.84500003
-0.31623253 0.11680418 0.84400004
-0.31442031 0.11680418 0.84400004
-0.31297848 0.11694257 0.84500003
-0.31042764 0.11666578 0.84300005
-0.30861756 0.11666578 0.84300005
-0.30680749 0.11666578 0.84300005
-0.30535921 0.11680418 0.84400004
-0.3042663 0.11708096 0.84600002
-0.30316478 0.11735775 0.84800005
-0.30134398 0.11735775 0.84800005
-0.29916999 0.11721936 0.84700006
-0.29700023 0.11708096 0.84600002
-0.29553264 0.11721936 0.84700006
-0.29406074 0.11735775 0.84800005
-0.29258457 0.11749614 0.84900004
-0.29076159 0.11749614 0.84900004
-0.28927895 0.11763453 0.85000002
-0.28813022 0.11791132 0.85200006
-0.28764498 0.1184649 0.85600007
-0.28614089 0.1186033 0.85700005
-0.28463247 0.11874168 0.85800004
-0.28344938 0.11901847 0.86000001
-0.28225768 0.11929526 0.86200005
-0.28105742 0.11957204 0.86400002
-0.2795254 0.11971045 0.86500007
-0.27831009 0.11998723 0.86700004
-0.2770862 0.12026401 0.86900002
-0.27585372 0.12054081 0.87100005
-0.27461267 0.12081759 0.87300003
-0.27336299 0.12109438 0.87500006
-0.27148423 0.12109438 0.87500006
-0.26960543 0.12109438 0.87500006
-0.26803261 0.12123277 0.87600005
-0.26675931 0.12150955 0.87800002
-0.26577914 0.12192474 0.88100004
-0.26388749 0.12192474 0.88100004
-0.26229319 0.12206313 0.88200003
-0.26069462 0.12220152 0.88300002
-0.25909176 0.12233992 0.88400006
-0.25719365 0.12233992 0.88400006
-0.25558433 0.12247831 0.88500005
-0.25397071 0.12261671 0.88600004
-0.25206834 0.12261671 0.88600004
-0.25016591 0.12261671 0.88600004
-0.24826352 0.12261671 0.88600004
-0.24636111 0.12261671 0.88600004
-0.24445872 0.12261671 0.88600004
-0.2425563 0.12261671 0.88600004
-0.2403823 0.12247831 0.88500005
-0.23821256 0.12233992 0.88400006
-0.23658179 0.12247831 0.88500005
-0.23494671 0.12261671 0.88600004
-0.23357037 0.1228935 0.88800007
-0.23192455 0.12303189 0.88900006
-0.2300157 0.12303189 0.88900006
-0.22836345 0.12317028 0.89000005
-0.22645244 0.12317028 0.89000005
-0.22428918 0.12303189 0.88900006
-0.22238034 0.12303189 0.88900006
-0.22047149 0.12303189 0.88900006
-0.21856263 0.12303189 0.88900006
-0.21665379 0.12303189 0.88900006
-0.21498652 0.12317028 0.89000005
-0.21307552 0.12317028 0.89000005
-0.21116452 0.12317028 0.89000005
-0.20925353 0.12317028 0.89000005
-0.20734254 0.12317028 0.89000005
-0.20520073 0.12303189 0.88900006
-0.20329188 0.12303189 0.88900006
-0.20092997 0.1227551 0.88700002
-0.19902544 0.1227551 0.88700002
-0.19689865 0.12261671 0.88600004
-0.19499625 0.12261671 0.88600004
-0.19287591 0.12247831 0.88500005
-0.19119145 0.12261671 0.88600004
-0.18928903 0.12261671 0.88600004
-0.18738663 0.12261671 0.88600004
-0.18548423 0.12261671 0.88600004
-0.18358184 0.12261671 0.88600004
-0.18188448 0.1227551 0.88700002
-0.18018286 0.1228935 0.88800007
-0.17807539 0.1227551 0.88700002
-0.17617084 0.1227551 0.88700002
-0.17426628 0.1227551 0.88700002
-0.17216742 0.12261671 0.88600004
-0.17026502 0.12261671 0.88600004
-0.16836262 0.12261671 0.88600004
-0.16646022 0.12261671 0.88600004
-0.16455781 0.12261671 0.88600004
-0.16265541 0.12261671 0.88600004
-0.16075301 0.12261671 0.88600004
-0.1588506 0.12261671 0.88600004
-0.15712534 0.1227551 0.88700002
-0.15504579 0.12261671 0.88600004
-0.15314341 0.12261671 0.88600004
-0.1510703 0.12247831 0.88500005
-0.14917004 0.12247831 0.88500005
-0.14743619 0.12261671 0.88600004
-0.14553379 0.12261671 0.88600004
-0.14363138 0.12261671 0.88600004
-0.14172898 0.12261671 0.88600004
-0.13982657 0.12261671 0.88600004
-0.13807985 0.1227551 0.88700002
-0.1361753 0.1227551 0.88700002
-0.13427074 0.1227551 0.88700002
-0.13221698 0.12261671 0.88600004
-0.13031456 0.12261671 0.88600004
-0.1285571 0.1227551 0.88700002
-0.12665254 0.1227551 0.88700002
-0.12488864 0.1228935 0.88800007
-0.12298194 0.1228935 0.88800007
-0.12107526 0.1228935 0.88800007
-0.11930276 0.12303189 0.88900006
-0.11726186 0.1228935 0.88800007
-0.11522525 0.1227551 0.88700002
-0.1133207 0.1227551 0.88700002
-0.11166737 0.12303189 0.88900006
-0.10975853 0.12303189 0.88900006
-0.10784969 0.12303189 0.88900006
-0.10606001 0.12317028 0.89000005
-0.10426603 0.12330867 0.89100003
-0.1023529 0.12330867 0.89100003
-0.10032704 0.12317028 0.89000005
-0.098305464 0.12303189 0.88900006
-0.096396618 0.12303189 0.88900006
-0.094487779 0.12303189 0.88900006
-0.092578933 0.12303189 0.88900006
-0.090568103 0.1228935 0.88800007
-0.08856155 0.1227551 0.88700002
-0.086559311 0.12261671 0.88600004
-0.084656909 0.12261671 0.88600004
-0.0826611 0.12247831 0.88500005
-0.080669589 0.12233992 0.88400006
-0.078682378 0.12220152 0.88300002
-0.076873377 0.12233992 0.88400006
-0.075144894 0.12261671 0.88600004
-0.073242493 0.12261671 0.88600004
-0.071340092 0.12261671 0.88600004
-0.069516063 0.1227551 0.88700002
-0.067611508 0.1227551 0.88700002
-0.065706961 0.1227551 0.88700002
-0.063802414 0.1227551 0.88700002
-0.061828081 0.12261671 0.88600004
-0.059925675 0.12261671 0.88600004
-0.05802327 0.12261671 0.88600004
-0.056057531 0.12247831 0.88500005
-0.054157276 0.12247831 0.88500005
-0.05225702 0.12247831 0.88500005
-0.050356764 0.12247831 0.88500005
-0.048456509 0.12247831 0.88500005
-0.046608862 0.12261671 0.88600004
-0.044706456 0.12261671 0.88600004
-0.042852364 0.1227551 0.88700002
-0.040993981 0.1228935 0.88800007
-0.039087284 0.1228935 0.88800007
-0.037222456 0.12303189 0.88900006
-0.035313614 0.12303189 0.88900006
-0.033404768 0.12303189 0.88900006
-0.031495925 0.12303189 0.88900006
-0.029620362 0.12317028 0.89000005
-0.027678238 0.12303189 0.88900006
-0.025798382 0.12317028 0.89000005
-0.023860551 0.12303189 0.88900006
-0.021951707 0.12303189 0.88900006
-0.020042863 0.12303189 0.88900006
-0.018113621 0.1228935 0.88800007
-0.016225174 0.12303189 0.88900006
-0.014316331 0.12303189 0.88900006
-0.01239353 0.1228935 0.88800007
-0.010498642 0.12303189 0.88900006
-0.0085897977 0.12303189 0.88900006
-0.0066809538 0.12303189 0.88900006
-0.0047721099 0.12303189 0.88900006
-0.002863266 0.12303189 0.88900006
-0.00095442199 0.12303189 0.88900006
0.00095442199 0.12303189 0.88900006
0.002863266 0.12303189 0.88900006
0.0047721099 0.12303189 0.88900006
0.0066809538 0.12303189 0.88900006
0.0085897977 0.12303189 0.88900006
0.010498642 0.12303189 0.88900006
0.012407486 0.12303189 0.88900006
0.014332434 0.12317028 0.89000005
0.016243426 0.12317028 0.89000005
0.018174814 0.12330867 0.89100003
0.020087954 0.12330867 0.89100003
0.022025784 0.12344706 0.89200002
0.02394107 0.12344706 0.89200002
0.025856355 0.12344706 0.89200002
0.027740506 0.12330867 0.89100003
0.029653642 0.12330867 0.89100003
0.031602211 0.12344706 0.89200002
0.033517495 0.12344706 0.89200002
0.035393059 0.12330867 0.89100003
0.037348066 0.12344706 0.89200002
0.039263353 0.12344706 0.89200002
0.041224804 0.12358546 0.89300007
0.043142237 0.12358546 0.89300007
0.04505967 0.12358546 0.89300007
0.046977103 0.12358546 0.89300007
0.048949286 0.12372386 0.89400005
0.050868869 0.12372386 0.89400005
0.052847493 0.12386224 0.89500004
0.054769222 0.12386224 0.89500004
0.05669095 0.12386224 0.89500004
0.058547184 0.12372386 0.89400005
0.060466766 0.12372386 0.89400005
0.062316567 0.12358546 0.89300007
0.064233996 0.12358546 0.89300007
0.066151425 0.12358546 0.89300007
0.068068862 0.12358546 0.89300007
0.070064664 0.12372386 0.89400005
0.071903728 0.12358546 0.89300007
0.073986486 0.12386224 0.89500004
0.075993031 0.12400064 0.89600003
0.077916905 0.12400064 0.89600003
0.079840779 0.12400064 0.89600003
0.081673399 0.12386224 0.89500004
0.083688527 0.12400064 0.89600003
0.085612401 0.12400064 0.89600003
0.087536275 0.12400064 0.89600003
0.089360304 0.12386224 0.89500004
0.091384023 0.12400064 0.89600003
0.093307897 0.12400064 0.89600003
0.095444351 0.12427743 0.89800006
0.097372517 0.12427743 0.89800006
0.099300683 0.12427743 0.89800006
0.10134158 0.12441582 0.89900005
0.10327189 0.12441582 0.89900005
0.10531922 0.12455422 0.90000004
0.10725169 0.12455422 0.90000004
0.10918415 0.12455422 0.90000004
0.11111662 0.12455422 0.90000004
0.1133003 0.12483101 0.90200007
0.1151093 0.1246926 0.90100002
0.11704391 0.1246926 0.90100002
0.11911058 0.12483101 0.90200007
0.12104734 0.12483101 0.90200007
0.1229841 0.12483101 0.90200007
0.12505934 0.1249694 0.90300006
0.12699825 0.1249694 0.90300006
0.12893716 0.1249694 0.90300006
0.13102099 0.1251078 0.90400004
0.13310912 0.12524618 0.90500003
0.13505232 0.12524618 0.90500003
0.13714689 0.12538457 0.90600002
0.13909224 0.12538457 0.90600002
0.1410376 0.12538457 0.90600002
0.14314075 0.12552297 0.90700006
0.1452482 0.12566136 0.90800005
0.14735997 0.12579976 0.90900004
0.14931175 0.12579976 0.90900004
0.15142995 0.12593815 0.91000003
0.15338388 0.12593815 0.91000003
0.15533781 0.12593815 0.91000003
0.15746461 0.12607655 0.91100007
0.15959567 0.12621494 0.91200006
0.16173105 0.12635334 0.91300005
0.16387071 0.12649173 0.91400003
0.16637754 0.1269069 0.91700006
nan nan nan
0.18034497 0.13438016 0.97100008
0.18261775 0.13451855 0.97200006
0.18489484 0.13465695 0.97300005
0.18679187 0.13451855 0.97200006
0.18887892 0.13451855 0.97200006
0.190966 0.13451855 0.97200006
0.19384751 0.13507213 0.97600007
0.1967462 0.13562569 0.98000002
0.19945917 0.13604088 0.98300004
0.20197996 0.13631767 0.98500007
0.20450935 0.13659446 0.98700005
0.2070473 0.13687123 0.98900002
0.20980535 0.13728642 0.99200004
nan nan nan
nan nan nan
nan nan nan
nan nan nan
nan nan nan
nan nan nan
0.20296872 0.12400064 0.89600003
0.20466393 0.12386224 0.89500004
0.20612402 0.12358546 0.89300007
0.20780848 0.12344706 0.89200002
0.20901842 0.12303189 0.88900006
0.20974095 0.12233992 0.88400006
0.20996317 0.12137116 0.87700003
0.21039692 0.12054081 0.87100005
0.21129228 0.11998723 0.86700004
0.21217047 0.11943365 0.86300004
0.2127835 0.11874168 0.85800004
0.21337506 0.11804972 0.85300004
0.2144497 0.11763453 0.85000002
0.21576592 0.11735775 0.84800005
0.21707356 0.11708096 0.84600002
0.21811387 0.11666578 0.84300005
0.21940218 0.11638899 0.84100002
0.22041887 0.11597382 0.83800006
0.22115752 0.11542024 0.83400005
0.22187896 0.11486667 0.83000004
0.22285269 0.11445148 0.82700002
0.2240852 0.1141747 0.82500005
0.22530906 0.1138979 0.82300001
0.22624847 0.11348273 0.82000005
0.22745302 0.11320594 0.81800002
0.22864904 0.11292916 0.81600004
0.22955404 0.11251397 0.81300002
0.23101522 0.11237558 0.81200004
0.23247208 0.11223719 0.81100005
0.23392464 0.1120988 0.81000006
0.23537292 0.1119604 0.80900002
0.23681688 0.111822 0.80800003
0.23825659 0.11168361 0.80700004
0.23939459 0.11140683 0.80500007
0.24112308 0.11140683 0.80500007
0.24254987 0.11126843 0.80400002
0.24397236 0.11113004 0.80300003
0.24508463 0.11085325 0.80100006
0.24649636 0.11071485 0.80000001
0.2475936 0.11043807 0.79800004
0.24930704 0.11043807 0.79800004
0.25039139 0.11016129 0.79600006
0.25178382 0.11002289 0.79500002
0.25317198 0.10988449 0.79400003
0.25455582 0.10974611 0.79300004
0.25625855 0.10974611 0.79300004
0.25763598 0.10960771 0.79200006
0.25933653 0.10960771 0.79200006
0.26037791 0.10933092 0.79000002
0.26207417 0.10933092 0.79000002
0.26377046 0.10933092 0.79000002
0.26546672 0.10933092 0.79000002
0.26682481 0.10919253 0.78900003
0.26817864 0.10905413 0.78800005
0.26918563 0.10877734 0.78600001
0.27087334 0.10877734 0.78600001
0.27256101 0.10877734 0.78600001
0.27424869 0.10877734 0.78600001
0.27628747 0.10891575 0.78700006
0.27797729 0.10891575 0.78700006
0.28037784 0.10919253 0.78900003
0.28207195 0.10919253 0.78900003
0.28412575 0.10933092 0.79000002
0.2861838 0.10946931 0.79100001
0.28788224 0.10946931 0.79100001
0.28921455 0.10933092 0.79000002
0.29127908 0.10946931 0.79100001
0.2933479 0.10960771 0.79200006
0.29504845 0.10960771 0.79200006
0.29674903 0.10960771 0.79200006
0.29844958 0.10960771 0.79200006
0.30052912 0.10974611 0.79300004
0.30413747 0.11043807 0.79800004
0.30700076 0.11085325 0.80100006
0.30987686 0.11126843 0.80400002
0.31160322 0.11126843 0.80400002
0.31410897 0.11154522 0.80600005
0.31583959 0.11154522 0.80600005
0.31757024 0.11154522 0.80600005
0.32009315 0.111822 0.80800003
0.32222638 0.1119604 0.80900002
0.32356301 0.111822 0.80800003
nan nan nan
nan nan nan
0.32876775 0.111822 0.80800003
0.33132079 0.1120988 0.81000006
0.33347118 0.11223719 0.81100005
0.33562589 0.11237558 0.81200004
0.33820033 0.11265236 0.81400001
0.33994815 0.11265236 0.81400001
0.34127617 0.11251397 0.81300002
0.34217802 0.11223719 0.81100005
0.34307122 0.1119604 0.80900002
0.34438208 0.111822 0.80800003
0.34568864 0.11168361 0.80700004
0.34699091 0.11154522 0.80600005
0.34872153 0.11154522 0.80600005
0.35045215 0.11154522 0.80600005
0.35218281 0.11154522 0.80600005
nan nan nan
nan nan nan
nan nan nan
nan nan nan
nan nan nan
nan nan nan
0.368817 0.11292916 0.81600004
0.36966082 0.11265236 0.81400001
0.37003982 0.11223719 0.81100005
0.37086433 0.1119604 0.80900002
0.37260139 0.1119604 0.80900002
0.37387577 0.111822 0.80800003
0.37514582 0.11168361 0.80700004
0.37641159 0.11154522 0.80600005
0.37814221 0.11154522 0.80600005
0.37987286 0.11154522 0.80600005
0.38160348 0.11154522 0.80600005
0.38285851 0.11140683 0.80500007
0.38458699 0.11140683 0.80500007
0.38679534 0.11154522 0.80600005
0.38900802 0.11168361 0.80700004
0.39122498 0.111822 0.80800003
0.39344624 0.1119604 0.80900002
0.39616027 0.11223719 0.81100005
0.40133604 0.11320594 0.81800002
0.40407801 0.11348273 0.82000005
0.4058387 0.11348273 0.82000005
0.40859354 0.11375952 0.82200003
nan nan nan
0.41412893 0.11431309 0.82600003
0.41640604 0.11445148 0.82700002
nan nan nan
nan nan nan
nan nan nan
nan nan nan
nan nan nan
nan nan nan
nan nan nan
nan nan nan
nan nan nan
nan nan nan
nan nan nan
nan nan nan
nan nan nan
nan nan nan
nan nan nan
nan nan nan
nan nan nan
nan nan nan
nan nan nan
nan nan nan
nan nan nan
nan nan nan
nan nan nan
nan nan nan
nan nan nan
nan nan nan
nan nan nan
nan nan nan
nan nan nan
nan nan nan
nan nan nan
nan nan nan
nan nan nan
nan nan nan
nan nan nan
nan nan nan
nan nan nan
nan nan nan
nan nan nan
nan nan nan
nan nan nan
nan nan nan
nan nan nan
nan nan nan
nan nan nan
nan nan nan
nan nan nan
-0.34137496 0.11313532 0.80500007
-0.3400684 0.11327585 0.80600005
-0.33917731 0.11355693 0.80800003
-0.33786002 0.11369747 0.80900002
-0.33612293 0.11369747 0.80900002
-0.33438587 0.11369747 0.80900002
-0.33264878 0.11369747 0.80900002
-0.33172983 0.11397856 0.81100005
-0.32958156 0.11383802 0.81000006
-0.32905656 0.11425963 0.81300002
-0.32892132 0.1148218 0.81700003
nan nan nan
-0.33019245 0.11650829 0.82900006
-0.33158165 0.11763261 0.83700001
-0.33136049 0.11819477 0.84100002
-0.32994658 0.11833532 0.84200007
-0.32813865 0.11833532 0.84200007
-0.3267183 0.11847586 0.84300005
-0.32490823 0.11847586 0.84300005
-0.32348144 0.11861639 0.84400004
-0.3220503 0.11875694 0.84500003
-0.32023597 0.11875694 0.84500003
-0.31804475 0.11861639 0.84400004
-0.31548318 0.11833532 0.84200007
-0.3133027 0.11819477 0.84100002
-0.31112653 0.11805423 0.84000003
-0.30858645 0.11777315 0.83800006
-0.3056888 0.11735153 0.83500004
-0.30353197 0.11721099 0.83400005
-0.30246478 0.11749207 0.83600003
-0.30210838 0.11805423 0.84000003
-0.30137727 0.11847586 0.84300005
-0.29956719 0.11847586 0.84300005
-0.29775712 0.11847586 0.84300005
-0.29594705 0.11847586 0.84300005
-0.29413697 0.11847586 0.84300005
-0.2923269 0.11847586 0.84300005
-0.29086146 0.11861639 0.84400004
-0.2893917 0.11875694 0.84500003
-0.28791764 0.11889748 0.84600002
-0.28643933 0.11903802 0.84700006
-0.28529271 0.1193191 0.84900004
-0.28380367 0.11945964 0.85000002
-0.28264204 0.11974072 0.85200006
-0.2818014 0.12016235 0.85500002
-0.28127533 0.12072451 0.85900003
-0.28073213 0.12128667 0.86300004
-0.28017169 0.12184884 0.86700004
-0.27895209 0.12212991 0.86900002
-0.27740508 0.12227046 0.87000006
-0.27617043 0.12255154 0.87200004
-0.27461267 0.12269208 0.87300003
-0.27305055 0.12283262 0.87400001
-0.27148423 0.12297317 0.87500006
-0.26929727 0.12283262 0.87400001
-0.26742065 0.12283262 0.87400001
-0.26584786 0.12297317 0.87500006
-0.26427075 0.1231137 0.87600005
-0.2620903 0.12297317 0.87500006
-0.2602115 0.12297317 0.87500006
-0.25862798 0.1231137 0.87600005
-0.25704011 0.12325424 0.87700003
-0.25544798 0.12339478 0.87800002
-0.25414035 0.12367587 0.88000005
-0.25282413 0.12395694 0.88200003
-0.25121483 0.12409748 0.88300002
-0.24960122 0.12423803 0.88400006
-0.2474229 0.12409748 0.88300002
-0.24552692 0.12409748 0.88300002
-0.24363098 0.12409748 0.88300002
-0.24146123 0.12395694 0.88200003
-0.23902421 0.12367587 0.88000005
-0.23713467 0.12367587 0.88000005
-0.23524517 0.12367587 0.88000005
-0.233886 0.12395694 0.88200003
-0.23251824 0.12423803 0.88400006
-0.23088102 0.12437857 0.88500005
-0.22923948 0.12451911 0.88600004
-0.22733709 0.12451911 0.88600004
-0.22568911 0.12465965 0.88700002
-0.22378458 0.12465965 0.88700002
-0.22162989 0.12451911 0.88600004
-0.21972747 0.12451911 0.88600004
-0.21782507 0.12451911 0.88600004
-0.21592267 0.12451911 0.88600004
-0.21402028 0.12451911 0.88600004
-0.21235728 0.12465965 0.88700002
-0.21069001 0.1248002 0.88800007
-0.20901842 0.12494073 0.88900006
-0.20710957 0.12494073 0.88900006
-0.20496991 0.1248002 0.88800007
-0.20283453 0.12465965 0.88700002
-0.2002504 0.12423803 0.88400006
-0.19812791 0.12409748 0.88300002
-0.19578749 0.12381641 0.88100004
-0.19345565 0.12353533 0.87900007
-0.19156829 0.12353533 0.87900007
-0.1898967 0.12367587 0.88000005
-0.18800718 0.12367587 0.88000005
-0.18632916 0.12381641 0.88100004
-0.18464683 0.12395694 0.88200003
-0.18296023 0.12409748 0.88300002
-0.18126933 0.12423803 0.88400006
-0.17937122 0.12423803 0.88400006
-0.17747311 0.12423803 0.88400006
-0.175575 0.12423803 0.88400006
-0.17367689 0.12423803 0.88400006
-0.17177878 0.12423803 0.88400006
-0.16968849 0.12409748 0.88300002
-0.16779254 0.12409748 0.88300002
-0.16589658 0.12409748 0.88300002
-0.16400062 0.12409748 0.88300002
-0.16210465 0.12409748 0.88300002
-0.16020869 0.12409748 0.88300002
-0.15831272 0.12409748 0.88300002
-0.15677105 0.12437857 0.88500005
-0.15469581 0.12423803 0.88400006
-0.15262486 0.12409748 0.88300002
-0.1507289 0.12409748 0.88300002
-0.14866437 0.12395694 0.88200003
-0.14677057 0.12395694 0.88200003
-0.14487675 0.12395694 0.88200003
-0.14314504 0.12409748 0.88300002
-0.14124908 0.12409748 0.88300002
-0.13951094 0.12423803 0.88400006
-0.13761285 0.12423803 0.88400006
-0.13571474 0.12423803 0.88400006
-0.13381663 0.12423803 0.88400006
-0.13176928 0.12409748 0.88300002
-0.12987332 0.12409748 0.88300002
-0.12797736 0.12409748 0.88300002
-0.12622419 0.12423803 0.88400006
-0.12432608 0.12423803 0.88400006
-0.12242797 0.12423803 0.88400006
-0.12052987 0.12423803 0.88400006
-0.11863176 0.12423803 0.88400006
-0.11660159 0.12409748 0.88300002
-0.11444583 0.12381641 0.88100004
-0.11268191 0.12395694 0.88200003
-0.11091371 0.12409748 0.88300002
-0.10914122 0.12423803 0.88400006
-0.10748573 0.12451911 0.88600004
-0.10558333 0.12451911 0.88600004
-0.10391498 0.1248002 0.88800007
-0.10212316 0.12494073 0.88900006
-0.10021431 0.12494073 0.88900006
-0.09819489 0.1248002 0.88800007
-0.096288189 0.1248002 0.88800007
-0.094381496 0.1248002 0.88800007
-0.092266515 0.12451911 0.88600004
-0.090364113 0.12451911 0.88600004
-0.088262022 0.12423803 0.88400006
-0.08626622 0.12409748 0.88300002
-0.084370255 0.12409748 0.88300002
-0.082474291 0.12409748 0.88300002
-0.08030457 0.12367587 0.88000005
-0.078415059 0.12367587 0.88000005
-0.076612495 0.12381641 0.88100004
-0.07489045 0.12409748 0.88300002
-0.072994485 0.12409748 0.88300002
-0.071179055 0.12423803 0.88400006
-0.069359317 0.12437857 0.88500005
-0.067459062 0.12437857 0.88500005
-0.06563288 0.12451911 0.88600004
-0.06365855 0.12437857 0.88500005
-0.061688513 0.12423803 0.88400006
-0.059790403 0.12423803 0.88400006
-0.057826802 0.12409748 0.88300002
-0.055930845 0.12409748 0.88300002
-0.054034885 0.12409748 0.88300002
-0.052079875 0.12395694 0.88200003
-0.050186064 0.12395694 0.88200003
-0.048237495 0.12381641 0.88100004
-0.046398435 0.12395694 0.88200003
-0.044555079 0.12409748 0.88300002
-0.042659119 0.12409748 0.88300002
-0.040763158 0.12409748 0.88300002
-0.038867198 0.12409748 0.88300002
-0.037054978 0.12437857 0.88500005
-0.035194445 0.12451911 0.88600004
-0.033329617 0.12465965 0.88700002
-0.03142507 0.12465965 0.88700002
-0.029520517 0.12465965 0.88700002
-0.02761597 0.12465965 0.88700002
-0.025740407 0.1248002 0.88800007
-0.02380687 0.12465965 0.88700002
-0.021902321 0.12465965 0.88700002
-0.019975226 0.12451911 0.88600004
-0.018072823 0.12451911 0.88600004
-0.016170422 0.12451911 0.88600004
-0.014268019 0.12451911 0.88600004
-0.012351659 0.12437857 0.88500005
-0.010451403 0.12437857 0.88500005
-0.0085511487 0.12437857 0.88500005
-0.0066508935 0.12437857 0.88500005
-0.0047560059 0.12451911 0.88600004
-0.0028536036 0.12451911 0.88600004
-0.00095120119 0.12451911 0.88600004
0.00095120119 0.12451911 0.88600004
0.0028536036 0.12451911 0.88600004
0.0047560059 0.12451911 0.88600004
0.0066584083 0.12451911 0.88600004
0.0085608112 0.12451911 0.88600004
0.010463214 0.12451911 0.88600004
0.012365616 0.12451911 0.88600004
0.014300227 0.1248002 0.88800007
0.016206924 0.1248002 0.88800007
0.018134018 0.12494073 0.88900006
0.020042863 0.12494073 0.88900006
0.021951707 0.12494073 0.88900006
0.023860551 0.12494073 0.88900006
0.025769394 0.12494073 0.88900006
0.027678238 0.12494073 0.88900006
0.029587081 0.12494073 0.88900006
0.031495925 0.12494073 0.88900006
0.033404768 0.12494073 0.88900006
0.035313614 0.12494073 0.88900006
0.037222456 0.12494073 0.88900006
0.03917532 0.12508127 0.89000005
0.041132472 0.12522182 0.89100003
0.043045614 0.12522182 0.89100003
0.044958748 0.12522182 0.89100003
0.046924494 0.12536235 0.89200002
0.048894536 0.1255029 0.89300007
0.050811969 0.1255029 0.89300007
0.052729398 0.1255029 0.89300007
0.054708026 0.12564343 0.89400005
0.056564268 0.1255029 0.89300007
0.058481697 0.1255029 0.89300007
0.06039913 0.1255029 0.89300007
0.062316567 0.1255029 0.89300007
0.064233996 0.1255029 0.89300007
0.066077344 0.12536235 0.89200002
0.068068862 0.1255029 0.89300007
0.069986299 0.1255029 0.89300007
0.071903728 0.1255029 0.89300007
0.073986486 0.12578398 0.89500004
0.075993031 0.12592451 0.89600003
0.077916905 0.12592451 0.89600003
0.079840779 0.12592451 0.89600003
0.081673399 0.12578398 0.89500004
0.083595127 0.12578398 0.89500004
0.085612401 0.12592451 0.89600003
0.087438583 0.12578398 0.89500004
0.089360304 0.12578398 0.89500004
0.091384023 0.12592451 0.89600003
0.093307897 0.12592451 0.89600003
0.095444351 0.12620561 0.89800006
0.097480945 0.12634614 0.89900005
0.099411264 0.12634614 0.89900005
0.10134158 0.12634614 0.89900005
0.10327189 0.12634614 0.89900005
0.10531922 0.12648667 0.90000004
0.10725169 0.12648667 0.90000004
0.10906284 0.12634614 0.89900005
0.11099316 0.12634614 0.89900005
0.11317468 0.12662722 0.90100002
0.11523706 0.12676777 0.90200007
0.11717382 0.12676777 0.90200007
0.11911058 0.12676777 0.90200007
0.12118154 0.1269083 0.90300006
0.12312044 0.1269083 0.90300006
0.12505934 0.1269083 0.90300006
0.12699825 0.1269083 0.90300006
0.12907994 0.12704885 0.90400004
0.13116592 0.12718938 0.90500003
0.1332562 0.12732992 0.90600002
0.13520154 0.12732992 0.90600002
0.13729829 0.12747046 0.90700006
0.13939929 0.12761101 0.90800005
0.14134894 0.12761101 0.90800005
0.14329857 0.12761101 0.90800005
0.1452482 0.12761101 0.90800005
0.14752208 0.12789209 0.91000003
0.14947601 0.12789209 0.91000003
0.15159635 0.12803264 0.91100007
0.15372099 0.12817317 0.91200006
0.15567923 0.12817317 0.91200006
0.1578103 0.12831371 0.91300005
0.15994565 0.12845425 0.91400003
0.16190818 0.12845425 0.91400003
0.16422929 0.12873533 0.91600007
0.16674042 0.12915695 0.91900003
0.17440479 0.13351372 0.95000005
0.17923057 0.13562183 0.96500003
0.18224199 0.13632452 0.97000003
0.18451479 0.13646507 0.97100008
0.18640752 0.13632452 0.97000003
0.18849029 0.13632452 0.97000003
0.19037658 0.13618399 0.96900004
0.19285445 0.13646507 0.97100008
0.19534087 0.13674615 0.97300005
0.19864753 0.1375894 0.97900003
0.2013648 0.13801102 0.98200005
0.20409495 0.13843265 0.98500007
0.2070473 0.1389948 0.98900002
nan nan nan
nan nan nan
nan nan nan
nan nan nan
nan nan nan
nan nan nan
nan nan nan
0.2027422 0.12578398 0.89500004
0.20443526 0.12564343 0.89400005
0.20612402 0.1255029 0.89300007
0.2075755 0.12522182 0.89100003
0.20878331 0.1248002 0.88800007
0.20950368 0.12409748 0.88300002
0.20948437 0.12297317 0.87500006
0.20991379 0.12212991 0.86900002
0.21104857 0.1217083 0.86600006
0.21192463 0.12114614 0.86200005
0.2125355 0.12044343 0.85700005
0.21312492 0.11974072 0.85200006
0.2144497 0.11945964 0.85000002
0.21576592 0.11917856 0.84800005
0.21707356 0.11889748 0.84600002
0.2183726 0.11861639 0.84400004
0.21940218 0.11819477 0.84100002
0.22015584 0.11763261 0.83700001
0.22089234 0.11707045 0.83300006
0.22161163 0.11650829 0.82900006
0.22285269 0.1162272 0.82700002
0.2240852 0.11594612 0.82500005
0.22530906 0.11566504 0.82300001
0.22652438 0.11538396 0.82100004
0.22745302 0.11496233 0.81800002
0.22836882 0.11454072 0.81500006
0.22955404 0.11425963 0.81300002
0.23044623 0.11383802 0.81000006
0.23189877 0.11369747 0.80900002
0.23363583 0.11369747 0.80900002
0.23508197 0.11355693 0.80800003
0.23623072 0.11327585 0.80600005
0.23796135 0.11327585 0.80600005
0.23909719 0.11299477 0.80400002
0.24052401 0.11285423 0.80300003
0.24224819 0.11285423 0.80300003
0.24336472 0.11257315 0.80100006
0.24477863 0.1124326 0.80000001
0.24588014 0.11215153 0.79800004
0.24697307 0.11187045 0.79600006
0.2483698 0.1117299 0.79500002
0.24976225 0.11158936 0.79400003
0.2511504 0.11144882 0.79300004
0.25285313 0.11144882 0.79300004
0.25423482 0.11130828 0.79200006
0.2559354 0.11130828 0.79200006
0.25698537 0.1110272 0.79000002
0.25835419 0.11088666 0.78900003
0.26004833 0.11088666 0.78900003
0.26141071 0.11074612 0.78800005
0.26276881 0.11060558 0.78700006
0.26445863 0.11060558 0.78700006
0.26547208 0.11032449 0.78500003
0.2668173 0.11018395 0.78400004
0.26781574 0.10990287 0.78200006
0.26880559 0.10962179 0.78000003
0.27048039 0.10962179 0.78000003
0.27250412 0.10976233 0.78100002
0.27523425 0.11018395 0.78400004
0.27762407 0.11046503 0.78600001
0.27966711 0.11060558 0.78700006
0.28171444 0.11074612 0.78800005
0.28340644 0.11074612 0.78800005
0.2850984 0.11074612 0.78800005
0.2867904 0.11074612 0.78800005
0.28811628 0.11060558 0.78700006
0.28980613 0.11060558 0.78700006
0.29149595 0.11060558 0.78700006
0.2935583 0.11074612 0.78800005
0.2952503 0.11074612 0.78800005
0.29731908 0.11088666 0.78900003
0.29901323 0.11088666 0.78900003
0.30223185 0.11144882 0.79300004
0.30585092 0.11215153 0.79800004
0.30872062 0.11257315 0.80100006
0.31121567 0.11285423 0.80300003
0.31332955 0.11299477 0.80400002
0.31466401 0.11285423 0.80300003
0.31638822 0.11285423 0.80300003
0.31811237 0.11285423 0.80300003
0.31904 0.11257315 0.80100006
0.31875762 0.11187045 0.79600006
0.31885642 0.11130828 0.79200006
0.31974745 0.1110272 0.79000002
0.32266441 0.11144882 0.79300004
0.3284575 0.11285423 0.80300003
0.33100408 0.11313532 0.80500007
0.33397254 0.11355693 0.80800003
0.33695391 0.11397856 0.81100005
0.33911291 0.11411909 0.81200004
0.34043664 0.11397856 0.81100005
0.34133416 0.11369747 0.80900002
0.34222308 0.11341639 0.80700004
0.34310344 0.11313532 0.80500007
0.34440354 0.11299477 0.80400002
0.34569937 0.11285423 0.80300003
0.34699091 0.11271369 0.80200005
0.34827814 0.11257315 0.80100006
0.34956107 0.1124326 0.80000001
nan nan nan
nan nan nan
nan nan nan
nan nan nan
nan nan nan
nan nan nan
nan nan nan
nan nan nan
0.368671 0.11355693 0.80800003
0.36948907 0.11327585 0.80600005
0.37121969 0.11327585 0.80600005
0.37295035 0.11327585 0.80600005
0.37468094 0.11327585 0.80600005
0.37641159 0.11327585 0.80600005
0.37814221 0.11327585 0.80600005
0.37940156 0.11313532 0.80500007
0.38065654 0.11299477 0.80400002
0.38190728 0.11285423 0.80300003
0.38363147 0.11285423 0.80300003
0.38535565 0.11285423 0.80300003
0.38707983 0.11285423 0.80300003
0.38928822 0.11299477 0.80400002
0.39150092 0.11313532 0.80500007
0.39274088 0.11299477 0.80400002
0.39544851 0.11327585 0.80600005
0.39767188 0.11341639 0.80700004
0.39989957 0.11355693 0.80800003
0.40163451 0.11355693 0.80800003
0.40486708 0.11397856 0.81100005
nan nan nan
0.41439196 0.11566504 0.82300001
nan nan nan
nan nan nan
nan nan nan
nan nan nan
nan nan nan
nan nan nan
nan nan nan
nan nan nan
nan nan nan
nan nan nan
nan nan nan
nan nan nan
nan nan nan
nan nan nan
nan nan nan
nan nan nan
nan nan nan
nan nan nan
nan nan nan
nan nan nan
nan nan nan
nan nan nan
nan nan nan
nan nan nan
nan nan nan
nan nan nan
nan nan nan
nan nan nan
nan nan nan
nan nan nan
nan nan nan
nan nan nan
nan nan nan
nan nan nan
nan nan nan
nan nan nan
nan nan nan
nan nan nan
nan nan nan
nan nan nan
nan nan nan
nan nan nan
nan nan nan
nan nan nan
nan nan nan
nan nan nan
-0.34352964 0.11500648 0.80600005
-0.34222308 0.11514917 0.80700004
-0.34091225 0.11529186 0.80800003
-0.33959708 0.11543454 0.80900002
-0.33786002 0.11543454 0.80900002
-0.33612293 0.11543454 0.80900002
-0.33438587 0.11543454 0.80900002
-0.33306 0.11557724 0.81000006
-0.33172983 0.11571992 0.81100005
-0.32998845 0.11571992 0.81100005
-0.32905656 0.11600529 0.81300002
-0.32811612 0.11629067 0.81500006
-0.32676661 0.11643336 0.81600004
-0.32859924 0.11771755 0.82500005
-0.33237398 0.11971518 0.83900005
-0.33136049 0.12000056 0.84100002
-0.32994658 0.12014325 0.84200007
-0.32813865 0.12014325 0.84200007
-0.32633075 0.12014325 0.84200007
-0.32490823 0.12028594 0.84300005
-0.32309815 0.12028594 0.84300005
-0.32128808 0.12028594 0.84300005
-0.31985697 0.12042862 0.84400004
-0.31766793 0.12028594 0.84300005
-0.31510848 0.12000056 0.84100002
-0.31218508 0.1195725 0.83800006
-0.30927458 0.11914442 0.83500004
-0.30674523 0.11885905 0.83300006
-0.30459049 0.11871636 0.83200002
-0.30244011 0.11857367 0.83100003
-0.30137941 0.11885905 0.83300006
-0.30102941 0.1194298 0.83700001
-0.30066222 0.12000056 0.84100002
-0.29921183 0.12014325 0.84200007
-0.29775712 0.12028594 0.84300005
-0.29559597 0.12014325 0.84200007
-0.29378808 0.12014325 0.84200007
-0.29163334 0.12000056 0.84100002
-0.28982759 0.12000056 0.84100002
-0.28836426 0.12014325 0.84200007
-0.28723702 0.12042862 0.84400004
-0.28576294 0.12057131 0.84500003
-0.28428462 0.12071399 0.84600002
-0.28280202 0.12085669 0.84700006
-0.28164682 0.12114206 0.84900004
-0.28048304 0.12142743 0.85100001
-0.27931067 0.12171281 0.85300004
-0.27943093 0.12256894 0.85900003
-0.27984855 0.12356776 0.86600006
-0.27895209 0.12399582 0.86900002
-0.2770862 0.12399582 0.86900002
-0.27585372 0.1242812 0.87100005
-0.2742981 0.12442388 0.87200004
-0.27242574 0.12442388 0.87200004
-0.27055341 0.12442388 0.87200004
-0.26868105 0.12442388 0.87200004
-0.26680872 0.12442388 0.87200004
-0.26493636 0.12442388 0.87200004
-0.26336572 0.12456657 0.87300003
-0.2611917 0.12442388 0.87200004
-0.25931934 0.12442388 0.87200004
-0.257447 0.12442388 0.87200004
-0.25557467 0.12442388 0.87200004
-0.2542842 0.12470926 0.87400001
-0.25269637 0.12485195 0.87500006
-0.25110424 0.12499464 0.87600005
-0.24979232 0.12528001 0.87800002
-0.2484718 0.12556539 0.88000005
-0.24686249 0.12570807 0.88100004
-0.24497081 0.12570807 0.88100004
-0.24280325 0.12556539 0.88000005
-0.2409137 0.12556539 0.88000005
-0.23875259 0.1254227 0.87900007
-0.23686521 0.1254227 0.87900007
-0.23497784 0.1254227 0.87900007
-0.23309048 0.1254227 0.87900007
-0.23146611 0.12556539 0.88000005
-0.22957662 0.12556539 0.88000005
-0.22820455 0.12585077 0.88200003
-0.22656733 0.12599345 0.88300002
-0.22467135 0.12599345 0.88300002
-0.22302771 0.12613614 0.88400006
-0.22087945 0.12599345 0.88300002
-0.21923149 0.12613614 0.88400006
-0.21733338 0.12613614 0.88400006
-0.21543527 0.12613614 0.88400006
-0.21377872 0.12627883 0.88500005
-0.21211788 0.12642151 0.88600004
-0.21021546 0.12642151 0.88600004
-0.20854817 0.1265642 0.88700002
-0.20641066 0.12642151 0.88600004
-0.20427744 0.12627883 0.88500005
-0.20191982 0.12599345 0.88300002
-0.19911776 0.1254227 0.87900007
-0.19678164 0.12513731 0.87700003
-0.19445409 0.12485195 0.87500006
-0.19257531 0.12485195 0.87500006
-0.19069652 0.12485195 0.87500006
-0.18881774 0.12485195 0.87500006
-0.18693896 0.12485195 0.87500006
-0.18527167 0.12499464 0.87600005
-0.18339074 0.12499464 0.87600005
-0.18171701 0.12513731 0.87700003
-0.18003899 0.12528001 0.87800002
-0.17855959 0.12556539 0.88000005
-0.17707159 0.12585077 0.88200003
-0.17497915 0.12570807 0.88100004
-0.17328395 0.12585077 0.88200003
-0.17139013 0.12585077 0.88200003
-0.16930415 0.12570807 0.88100004
-0.16741249 0.12570807 0.88100004
-0.16533294 0.12556539 0.88000005
-0.16344343 0.12556539 0.88000005
-0.1615539 0.12556539 0.88000005
-0.15948296 0.1254227 0.87900007
-0.15777487 0.12556539 0.88000005
-0.15588534 0.12556539 0.88000005
-0.15399583 0.12556539 0.88000005
-0.15193348 0.1254227 0.87900007
-0.14987539 0.12528001 0.87800002
-0.14799017 0.12528001 0.87800002
-0.14610493 0.12528001 0.87800002
-0.14405546 0.12513731 0.87700003
-0.14217237 0.12513731 0.87700003
-0.14044926 0.12528001 0.87800002
-0.13872185 0.1254227 0.87900007
-0.13699016 0.12556539 0.88000005
-0.13510063 0.12556539 0.88000005
-0.13321112 0.12556539 0.88000005
-0.13132159 0.12556539 0.88000005
-0.12928499 0.1254227 0.87900007
-0.12739763 0.1254227 0.87900007
-0.12536746 0.12528001 0.87800002
-0.12348223 0.12528001 0.87800002
-0.121597 0.12528001 0.87800002
-0.11971179 0.12528001 0.87800002
-0.11782656 0.12528001 0.87800002
-0.11594134 0.12528001 0.87800002
-0.11392621 0.12513731 0.87700003
-0.11204313 0.12513731 0.87700003
