# .PCD v0.7 - Point Cloud Data file format
VERSION 0.7
FIELDS x y z
SIZE 4 4 4
TYPE F F F
COUNT 1 1 1
WIDTH 1559
HEIGHT 1
VIEWPOINT 0 0 0 1 0 0 0
POINTS 1559
DATA ascii
0.45812899 0.10593112 0.90600002
0.45855096 0.10558036 0.90300006
0.45946988 0.10534651 0.90100002
0.46191663 0.10546344 0.90200007
0.46385342 0.10546344 0.90200007
nan nan nan
nan nan nan
nan nan nan
nan nan nan
nan nan nan
nan nan nan
nan nan nan
nan nan nan
nan nan nan
nan nan nan
nan nan nan
nan nan nan
nan nan nan
nan nan nan
nan nan nan
nan nan nan
nan nan nan
nan nan nan
nan nan nan
nan nan nan
nan nan nan
nan nan nan
nan nan nan
nan nan nan
nan nan nan
nan nan nan
nan nan nan
nan nan nan
nan nan nan
nan nan nan
nan nan nan
nan nan nan
nan nan nan
nan nan nan
nan nan nan
nan nan nan
nan nan nan
nan nan nan
nan nan nan
nan nan nan
nan nan nan
nan nan nan
-0.33798242 0.094897956 0.79700005
-0.33711496 0.095136091 0.79900002
-0.33623889 0.095374234 0.80100006
-0.33535427 0.095612362 0.80300003
-0.33446103 0.095850505 0.80500007
-0.33314589 0.095969573 0.80600005
-0.3322376 0.096207708 0.80800003
-0.33091173 0.096326776 0.80900002
-0.32998845 0.096564919 0.81100005
-0.3282471 0.096564919 0.81100005
-0.32650575 0.096564919 0.81100005
-0.32476437 0.096564919 0.81100005
-0.3234213 0.096683986 0.81200004
-0.32247007 0.096922122 0.81400001
-0.32072228 0.096922122 0.81400001
-0.31936634 0.097041197 0.81500006
-0.31878552 0.0973984 0.81800002
nan nan nan
nan nan nan
-0.346861 0.1077574 0.90500003
-0.34606117 0.10811461 0.90800005
-0.34486949 0.10835274 0.91000003
-0.34291553 0.10835274 0.91000003
-0.34096161 0.10835274 0.91000003
-0.33900768 0.10835274 0.91000003
-0.33705375 0.10835274 0.91000003
-0.33473158 0.10823368 0.90900004
-0.33277977 0.10823368 0.90900004
-0.33010012 0.10799554 0.90700006
-0.3270672 0.10763833 0.90400004
-0.3233279 0.10704298 0.89900005
-0.31996754 0.10656671 0.89500004
-0.31555834 0.10573323 0.88800007
-0.30941311 0.1043044 0.87600005
-0.30577683 0.10370906 0.87100005
-0.30355775 0.10358999 0.87000006
-0.30203643 0.10370906 0.87100005
-0.30051088 0.10382812 0.87200004
-0.29932347 0.10406626 0.87400001
-0.29744685 0.10406626 0.87400001
-0.29590839 0.10418534 0.87500006
-0.29436564 0.1043044 0.87600005
-0.29281861 0.10442346 0.87700003
-0.29126725 0.10454253 0.87800002
-0.28971165 0.10466161 0.87900007
-0.28815171 0.10478067 0.88000005
-0.28821397 0.10549509 0.88600004
-0.28695786 0.10573323 0.88800007
-0.28537217 0.1058523 0.88900006
-0.28250676 0.10549509 0.88600004
-0.27870411 0.10478067 0.88000005
-0.27618545 0.10454253 0.87800002
-0.27430022 0.10454253 0.87800002
-0.27303556 0.10478067 0.88000005
-0.27299473 0.10549509 0.88600004
-0.2726222 0.10609043 0.89100003
-0.27131671 0.10632858 0.89300007
-0.27000266 0.10656671 0.89500004
-0.26838046 0.10668577 0.89600003
-0.26734874 0.10704298 0.89900005
-0.26600888 0.10728112 0.90100002
-0.26466045 0.10751926 0.90300006
-0.26330346 0.1077574 0.90500003
-0.26280421 0.10835274 0.91000003
-0.26171023 0.10870995 0.91300005
-0.26003438 0.10882902 0.91400003
-0.25835419 0.10894808 0.91500002
-0.25638953 0.10894808 0.91500002
-0.25470293 0.10906716 0.91600007
-0.25301203 0.10918622 0.91700006
-0.25131679 0.10930529 0.91800004
-0.2493457 0.10930529 0.91800004
-0.24737456 0.10930529 0.91800004
-0.24513616 0.10918622 0.91700006
-0.24290203 0.10906716 0.91600007
-0.24119821 0.10918622 0.91700006
-0.23896839 0.10906716 0.91600007
-0.23674281 0.10894808 0.91500002
-0.23452157 0.10882902 0.91400003
-0.23230459 0.10870995 0.91300005
-0.23034422 0.10870995 0.91300005
-0.22813371 0.10859089 0.91200006
-0.22617547 0.10859089 0.91200006
-0.22421724 0.10859089 0.91200006
-0.22201531 0.10847182 0.91100007
-0.22005923 0.10847182 0.91100007
-0.21786372 0.10835274 0.91000003
-0.21590979 0.10835274 0.91000003
-0.21395585 0.10835274 0.91000003
-0.21200192 0.10835274 0.91000003
-0.21004798 0.10835274 0.91000003
-0.20832273 0.10847182 0.91100007
-0.20659317 0.10859089 0.91200006
-0.20508371 0.10882902 0.91400003
-0.20334342 0.10894808 0.91500002
-0.20181893 0.10918622 0.91700006
-0.20006789 0.10930529 0.91800004
-0.19831257 0.10942436 0.91900003
-0.19655295 0.10954343 0.92000002
-0.19457754 0.10954343 0.92000002
-0.19239278 0.10942436 0.91900003
-0.19021234 0.10930529 0.91800004
-0.18824123 0.10930529 0.91800004
-0.1862701 0.10930529 0.91800004
-0.18429899 0.10930529 0.91800004
-0.18212926 0.10918622 0.91700006
-0.18035677 0.10930529 0.91800004
-0.17838566 0.10930529 0.91800004
-0.17699106 0.1096625 0.92100006
-0.17520355 0.10978157 0.92200005
-0.17303596 0.1096625 0.92100006
-0.17124413 0.10978157 0.92200005
-0.16908085 0.1096625 0.92100006
-0.16674042 0.10942436 0.91900003
-0.16458787 0.10930529 0.91800004
-0.16226247 0.10906716 0.91600007
-0.16029565 0.10906716 0.91600007
-0.15832885 0.10906716 0.91600007
-0.15619132 0.10894808 0.91500002
-0.1540581 0.10882902 0.91400003
-0.15209557 0.10882902 0.91400003
-0.15013304 0.10882902 0.91400003
-0.14817052 0.10882902 0.91400003
-0.146208 0.10882902 0.91400003
-0.14424548 0.10882902 0.91400003
-0.14228296 0.10882902 0.91400003
-0.14047396 0.10894808 0.91500002
-0.13850929 0.10894808 0.91500002
-0.13654462 0.10894808 0.91500002
-0.13457994 0.10894808 0.91500002
-0.13247034 0.10882902 0.91400003
-0.13036503 0.10870995 0.91300005
-0.12826401 0.10859089 0.91200006
-0.12630577 0.10859089 0.91200006
-0.12421121 0.10847182 0.91100007
-0.12225513 0.10847182 0.91100007
-0.1204311 0.10859089 0.91200006
-0.11873267 0.10882902 0.91400003
-0.11677015 0.10882902 0.91400003
-0.11518446 0.10918622 0.91700006
-0.11333895 0.10930529 0.91800004
-0.11136784 0.10930529 0.91800004
-0.10939673 0.10930529 0.91800004
-0.10742562 0.10930529 0.91800004
-0.10533963 0.10918622 0.91700006
-0.10337067 0.10918622 0.91700006
-0.10118054 0.10894808 0.91500002
-0.099215865 0.10894808 0.91500002
-0.097144917 0.10882902 0.91400003
-0.095182389 0.10882902 0.91400003
-0.093219861 0.10882902 0.91400003
-0.091257341 0.10882902 0.91400003
-0.089294821 0.10882902 0.91400003
-0.087332293 0.10882902 0.91400003
-0.085276365 0.10870995 0.91300005
-0.083407246 0.10882902 0.91400003
-0.081444725 0.10882902 0.91400003
-0.079482198 0.10882902 0.91400003
-0.077519678 0.10882902 0.91400003
-0.075722486 0.10906716 0.91600007
-0.073836192 0.10918622 0.91700006
-0.071867228 0.10918622 0.91700006
-0.069974482 0.10930529 0.91800004
-0.068003371 0.10930529 0.91800004
-0.066176124 0.10954343 0.92000002
-0.064200714 0.10954343 0.92000002
-0.062225305 0.10954343 0.92000002
-0.060249895 0.10954343 0.92000002
-0.058337841 0.1096625 0.92100006
-0.056421477 0.10978157 0.92200005
-0.054441776 0.10978157 0.92200005
-0.052405175 0.1096625 0.92100006
-0.050427619 0.1096625 0.92100006
-0.048450068 0.1096625 0.92100006
-0.046371594 0.10942436 0.91900003
-0.044398338 0.10942436 0.91900003
-0.042425074 0.10942436 0.91900003
-0.040451817 0.10942436 0.91900003
-0.038436688 0.10930529 0.91800004
-0.036465578 0.10930529 0.91800004
-0.034494463 0.10930529 0.91800004
-0.032523353 0.10930529 0.91800004
-0.030552238 0.10930529 0.91800004
-0.028581128 0.10930529 0.91800004
-0.026610015 0.10930529 0.91800004
-0.024638904 0.10930529 0.91800004
-0.022667792 0.10930529 0.91800004
-0.020696679 0.10930529 0.91800004
-0.018705169 0.10918622 0.91700006
-0.016717954 0.10906716 0.91600007
-0.014767239 0.10918622 0.91700006
-0.012784316 0.10906716 0.91600007
-0.010829308 0.10918622 0.91700006
-0.0088603431 0.10918622 0.91700006
-0.0068988926 0.10930529 0.91800004
-0.0049331486 0.10942436 0.91900003
-0.0029663306 0.1096625 0.92100006
-0.00099092408 0.10990064 0.92300004
0.00099092408 0.10990064 0.92300004
0.0029759929 0.11001971 0.92400002
0.0049599879 0.11001971 0.92400002
0.0069439835 0.11001971 0.92400002
0.0089279786 0.11001971 0.92400002
0.010900165 0.10990064 0.92300004
0.012882013 0.10990064 0.92300004
0.014863862 0.10990064 0.92300004
0.016827459 0.10978157 0.92200005
0.018786762 0.1096625 0.92100006
0.02074177 0.10954343 0.92000002
0.022692483 0.10942436 0.91900003
0.024638904 0.10930529 0.91800004
0.026610015 0.10930529 0.91800004
0.028518861 0.10906716 0.91600007
0.030419113 0.10882902 0.91400003
0.032381639 0.10882902 0.91400003
0.034306586 0.10870995 0.91300005
0.036227241 0.10859089 0.91200006
0.038101725 0.10835274 0.91000003
0.040011644 0.10823368 0.90900004
0.041824937 0.10787646 0.90600002
0.043625351 0.10751926 0.90300006
0.045513798 0.10740019 0.90200007
0.047292739 0.10704298 0.89900005
0.0491683 0.10692392 0.89800006
0.051039565 0.10680484 0.89700001
0.052965585 0.10680484 0.89700001
0.054952808 0.10692392 0.89800006
0.056880977 0.10692392 0.89800006
0.058678161 0.10668577 0.89600003
0.060602035 0.10668577 0.89600003
0.062456131 0.10656671 0.89500004
0.064233996 0.10632858 0.89300007
0.066151425 0.10632858 0.89300007
0.067992635 0.1062095 0.89200002
0.069829546 0.10609043 0.89100003
0.071662173 0.10597137 0.89000005
0.073655821 0.10609043 0.89100003
0.075653777 0.1062095 0.89200002
0.077742986 0.10644764 0.89400005
0.079840779 0.10668577 0.89600003
0.081764653 0.10668577 0.89600003
0.083968736 0.10704298 0.89900005
0.085899055 0.10704298 0.89900005
0.087829374 0.10704298 0.89900005
0.089759685 0.10704298 0.89900005
0.091689996 0.10704298 0.89900005
0.093620315 0.10704298 0.89900005
0.095550634 0.10704298 0.89900005
0.097589374 0.10716205 0.90000004
0.099743001 0.10740019 0.90200007
0.1014543 0.10716205 0.90000004
0.10338677 0.10716205 0.90000004
0.10520221 0.10704298 0.89900005
0.10701336 0.10692392 0.89800006
0.10882021 0.10680484 0.89700001
0.11062277 0.10668577 0.89600003
0.11242103 0.10656671 0.89500004
0.11434276 0.10656671 0.89500004
0.11626448 0.10656671 0.89500004
0.11805417 0.10644764 0.89400005
0.12010794 0.10656671 0.89500004
0.12216602 0.10668577 0.89600003
0.12395139 0.10656671 0.89500004
0.12587312 0.10656671 0.89500004
0.12765206 0.10644764 0.89400005
0.1294267 0.10632858 0.89300007
0.13134414 0.10632858 0.89300007
0.13281389 0.10597137 0.89000005
0.13472489 0.10597137 0.89000005
0.13648236 0.1058523 0.88900006
0.13854687 0.10597137 0.89000005
0.14077348 0.1062095 0.89200002
0.14300869 0.10644764 0.89400005
0.14509039 0.10656671 0.89500004
0.14717637 0.10668577 0.89600003
0.14943308 0.10692392 0.89800006
0.15152979 0.10704298 0.89900005
0.15346012 0.10704298 0.89900005
0.15539043 0.10704298 0.89900005
0.15732074 0.10704298 0.89900005
0.15942819 0.10716205 0.90000004
nan nan nan
0.18270686 0.11990244 1.0070001
0.18468548 0.11978336 1.006
0.18684556 0.11978336 1.006
0.18862987 0.11954523 1.0040001
0.19078563 0.11954523 1.0040001
0.19255705 0.11930709 1.0020001
0.19470853 0.11930709 1.0020001
0.19646706 0.11906894 1
0.19841564 0.11894988 0.99900007
0.20015915 0.11871174 0.99700004
0.20229989 0.11871174 0.99700004
0.20423557 0.11859267 0.99600005
0.20575255 0.11823546 0.99300003
0.20746601 0.11799733 0.99100006
0.20938237 0.11787826 0.99000007
0.21129441 0.11775919 0.98900002
0.21277061 0.11740199 0.98600006
0.21423392 0.11704478 0.98300004
0.21590443 0.11680664 0.98100007
0.21756634 0.1165685 0.97900003
nan nan nan
nan nan nan
nan nan nan
nan nan nan
nan nan nan
0.2144261 0.10859089 0.91200006
0.21519801 0.10799554 0.90700006
0.21546963 0.10716205 0.90000004
0.21643585 0.10668577 0.89600003
0.21762861 0.10632858 0.89300007
0.21880849 0.10597137 0.89000005
0.22022349 0.10573323 0.88800007
0.22137976 0.10537602 0.88500005
0.22252311 0.10501881 0.88200003
0.22339915 0.10454253 0.87800002
0.22451463 0.10418534 0.87500006
0.22535846 0.10370906 0.87100005
0.22566338 0.10299464 0.86500007
0.22541644 0.10204209 0.85700005
0.22513516 0.10108954 0.84900004
0.22588882 0.10061326 0.84500003
0.22716424 0.10037512 0.84300005
0.22815946 0.10001791 0.84000003
0.22914179 0.09966071 0.83700001
0.23038717 0.099422574 0.83500004
0.23162393 0.099184439 0.83300006
0.23285213 0.098946296 0.83100003
0.23435408 0.098827228 0.83000004
0.23585175 0.09870816 0.82900006
0.23734511 0.098589092 0.82800007
0.23883416 0.098470017 0.82700002
0.24060988 0.098470017 0.82700002
0.2426787 0.098589092 0.82800007
0.24416132 0.098470017 0.82700002
0.24534227 0.098231882 0.82500005
0.24651465 0.097993739 0.82300001
0.24767841 0.097755603 0.82100004
0.2488336 0.097517475 0.81900007
0.24967422 0.097160265 0.81600004
0.25081006 0.096922122 0.81400001
0.25255787 0.096922122 0.81400001
0.25399327 0.096803054 0.81300002
0.25573894 0.096803054 0.81300002
0.25748459 0.096803054 0.81300002
0.2589114 0.096683986 0.81200004
0.2606549 0.096683986 0.81200004
0.26207525 0.096564919 0.81100005
0.26381662 0.096564919 0.81100005
0.26555797 0.096564919 0.81100005
0.26729935 0.096564919 0.81100005
0.2690407 0.096564919 0.81100005
0.27078208 0.096564919 0.81100005
0.27252343 0.096564919 0.81100005
0.27426481 0.096564919 0.81100005
0.27600616 0.096564919 0.81100005
0.27774754 0.096564919 0.81100005
0.28017813 0.096803054 0.81300002
0.28261733 0.097041197 0.81500006
0.28506514 0.097279333 0.81700003
0.28752151 0.097517475 0.81900007
0.28963327 0.097636536 0.82000005
0.29139394 0.097636536 0.82000005
0.29315463 0.097636536 0.82000005
0.29527497 0.097755603 0.82100004
0.29739961 0.097874671 0.82200003
0.29952854 0.097993739 0.82300001
0.30166176 0.098112814 0.82400006
0.30416754 0.09835095 0.82600003
0.30742264 0.098827228 0.83000004
0.31069493 0.099303506 0.83400005
0.3128604 0.099422574 0.83500004
0.3150301 0.099541642 0.83600003
0.31758311 0.099779785 0.83800006
0.31938246 0.099779785 0.83800006
0.32156506 0.099898845 0.83900005
0.32336655 0.099898845 0.83900005
0.32516804 0.099898845 0.83900005
0.32774892 0.10013698 0.84100002
0.33033845 0.10037512 0.84300005
0.33254254 0.10049419 0.84400004
0.33514702 0.10073233 0.84600002
0.33815849 0.10108954 0.84900004
0.34078231 0.10132767 0.85100001
0.34301218 0.10144675 0.85200006
0.34565106 0.10168488 0.85400003
0.34870541 0.10204209 0.85700005
0.35136363 0.10228022 0.85900003
0.35444161 0.10263743 0.86200005
0.35711914 0.10287557 0.86400002
0.35980529 0.10311371 0.86600006
0.36208236 0.10323278 0.86700004
nan nan nan
0.36453983 0.10287557 0.86400002
0.36469871 0.10239929 0.86000001
0.36611906 0.10228022 0.85900003
0.36710677 0.10204209 0.85700005
0.36894691 0.10204209 0.85700005
0.37078705 0.10204209 0.85700005
0.37175754 0.10180395 0.85500002
0.37315646 0.10168488 0.85400003
0.37542924 0.10180395 0.85500002
0.37726507 0.10180395 0.85500002
0.37910092 0.10180395 0.85500002
0.38182783 0.10204209 0.85700005
0.38366798 0.10204209 0.85700005
0.38595793 0.10216115 0.85800004
0.3882522 0.10228022 0.85900003
0.39009663 0.10228022 0.85900003
0.39102852 0.10204209 0.85700005
0.3919518 0.10180395 0.85500002
0.39332706 0.10168488 0.85400003
0.39423534 0.10144675 0.85200006
0.39513499 0.1012086 0.85000002
0.39555907 0.1008514 0.84700006
0.39690855 0.10073233 0.84600002
0.39872509 0.10073233 0.84600002
0.40054157 0.10073233 0.84600002
0.40093133 0.10037512 0.84300005
nan nan nan
0.40455145 0.10037512 0.84300005
0.40684357 0.10049419 0.84400004
0.40962416 0.10073233 0.84600002
0.4114407 0.10073233 0.84600002
0.41325718 0.10073233 0.84600002
0.41703624 0.1012086 0.85000002
0.42083246 0.10168488 0.85400003
nan nan nan
nan nan nan
nan nan nan
0.44370958 0.10537602 0.88500005
0.44913444 0.1062095 0.89200002
0.45206109 0.10644764 0.89400005
0.45398068 0.10644764 0.89400005
0.45539027 0.10632858 0.89300007
0.45833191 0.10656671 0.89500004
0.46076789 0.10668577 0.89600003
nan nan nan
nan nan nan
nan nan nan
nan nan nan
nan nan nan
nan nan nan
nan nan nan
nan nan nan
nan nan nan
nan nan nan
nan nan nan
nan nan nan
nan nan nan
nan nan nan
nan nan nan
nan nan nan
nan nan nan
nan nan nan
nan nan nan
nan nan nan
nan nan nan
nan nan nan
nan nan nan
nan nan nan
nan nan nan
nan nan nan
nan nan nan
nan nan nan
nan nan nan
nan nan nan
nan nan nan
nan nan nan
nan nan nan
nan nan nan
nan nan nan
nan nan nan
nan nan nan
nan nan nan
nan nan nan
nan nan nan
nan nan nan
nan nan nan
-0.33925459 0.096972905 0.80000001
nan nan nan
-0.33707842 0.097336553 0.80300003
-0.33577189 0.097457767 0.80400002
-0.33446103 0.097578987 0.80500007
-0.33314589 0.097700201 0.80600005
-0.3322376 0.097942635 0.80800003
-0.33050269 0.097942635 0.80800003
-0.32876775 0.097942635 0.80800003
-0.32743758 0.098063849 0.80900002
-0.32570052 0.098063849 0.80900002
-0.32396343 0.098063849 0.80900002
-0.32302299 0.098306283 0.81100005
-0.32167777 0.098427497 0.81200004
-0.32032827 0.09854871 0.81300002
-0.31897447 0.098669931 0.81400001
-0.31839582 0.099033579 0.81700003
nan nan nan
nan nan nan
-0.34456137 0.1089733 0.89900005
-0.34263104 0.1089733 0.89900005
-0.34259564 0.10957938 0.90400004
-0.34140822 0.10982181 0.90600002
-0.33946288 0.10982181 0.90600002
-0.33751753 0.10982181 0.90600002
-0.33446103 0.10945817 0.90300006
-0.33178565 0.10921573 0.90100002
-0.32911885 0.1089733 0.89900005
-0.32609668 0.10860965 0.89600003
-0.32344919 0.10836722 0.89400005
-0.31937173 0.10763993 0.88800007
-0.31460497 0.1066702 0.88000005
-0.31022793 0.10582168 0.87300003
-0.30694062 0.10533682 0.86900002
-0.30507469 0.10533682 0.86900002
-0.3032088 0.10533682 0.86900002
-0.3013429 0.10533682 0.86900002
-0.29982165 0.10545804 0.87000006
-0.29829606 0.10557925 0.87100005
-0.29676619 0.10570046 0.87200004
-0.29489383 0.10570046 0.87200004
-0.29369357 0.1059429 0.87400001
-0.29215086 0.10606412 0.87500006
-0.29027206 0.10606412 0.87500006
-0.28872287 0.10618533 0.87600005
-0.28651446 0.10606412 0.87500006
-0.28528628 0.10630655 0.87700003
-0.28404951 0.10654898 0.87900007
-0.28087813 0.10606412 0.87500006
-0.27772394 0.10557925 0.87100005
-0.27553701 0.10545804 0.87000006
-0.2742981 0.10570046 0.87200004
-0.27305055 0.1059429 0.87400001
-0.27241501 0.10642776 0.87800002
-0.27268663 0.10727628 0.88500005
-0.2726222 0.10800357 0.89100003
-0.27131671 0.10824601 0.89300007
-0.27030432 0.10860965 0.89600003
-0.26897955 0.10885209 0.89800006
-0.2682409 0.10933696 0.90200007
-0.26689461 0.10957938 0.90400004
-0.26524663 0.1097006 0.90500003
-0.26359439 0.10982181 0.90600002
-0.26222664 0.11006425 0.90800005
-0.26085028 0.11030668 0.91000003
-0.25889638 0.11030668 0.91000003
-0.25750715 0.11054911 0.91200006
-0.25582913 0.11067033 0.91300005
-0.25386873 0.11067033 0.91300005
-0.25218427 0.11079154 0.91400003
-0.24994798 0.11067033 0.91300005
-0.24798761 0.11067033 0.91300005
-0.24602722 0.11067033 0.91300005
-0.24379954 0.11054911 0.91200006
-0.24210648 0.11067033 0.91300005
-0.2401461 0.11067033 0.91300005
-0.23818573 0.11067033 0.91300005
-0.23622534 0.11067033 0.91300005
-0.23426497 0.11067033 0.91300005
-0.23205015 0.11054911 0.91200006
-0.23034422 0.11067033 0.91300005
-0.22813371 0.11054911 0.91200006
-0.22617547 0.11054911 0.91200006
-0.22397138 0.1104279 0.91100007
-0.22177158 0.11030668 0.91000003
-0.21981767 0.11030668 0.91000003
-0.21762432 0.11018547 0.90900004
-0.21567254 0.11018547 0.90900004
-0.21372074 0.11018547 0.90900004
-0.21176895 0.11018547 0.90900004
-0.21004798 0.11030668 0.91000003
-0.20809405 0.11030668 0.91000003
-0.20636664 0.1104279 0.91100007
-0.20508371 0.11079154 0.91400003
-0.20334342 0.11091276 0.91500002
-0.20159884 0.11103398 0.91600007
-0.19984996 0.1111552 0.91700006
-0.19809678 0.11127641 0.91800004
-0.19612567 0.11127641 0.91800004
-0.19415455 0.11127641 0.91800004
-0.19176474 0.11103398 0.91600007
-0.18959072 0.11091276 0.91500002
-0.18742099 0.11079154 0.91400003
-0.18545847 0.11079154 0.91400003
-0.18349595 0.11079154 0.91400003
-0.18153343 0.11079154 0.91400003
-0.17976736 0.11091276 0.91500002
-0.17819133 0.1111552 0.91700006
-0.17660671 0.11139762 0.91900003
-0.17482348 0.11151884 0.92000002
-0.17247233 0.11127641 0.91800004
-0.17050122 0.11127641 0.91800004
-0.16834651 0.1111552 0.91700006
-0.16601467 0.11091276 0.91500002
-0.16387071 0.11079154 0.91400003
-0.1615539 0.11054911 0.91200006
-0.15959567 0.11054911 0.91200006
-0.1578103 0.11067033 0.91300005
-0.15567923 0.11054911 0.91200006
-0.15372099 0.11054911 0.91200006
-0.15176277 0.11054911 0.91200006
-0.14996879 0.11067033 0.91300005
-0.14800841 0.11067033 0.91300005
-0.14604804 0.11067033 0.91300005
-0.14408766 0.11067033 0.91300005
-0.14197162 0.11054911 0.91200006
-0.14016691 0.11067033 0.91300005
-0.13835791 0.11079154 0.91400003
-0.13639538 0.11079154 0.91400003
-0.13443285 0.11079154 0.91400003
-0.1323254 0.11067033 0.91300005
-0.13007945 0.1104279 0.91100007
-0.12798272 0.11030668 0.91000003
-0.12602879 0.11030668 0.91000003
-0.12380217 0.11006425 0.90800005
-0.12185253 0.11006425 0.90800005
-0.11990289 0.11006425 0.90800005
-0.11821305 0.11030668 0.91000003
-0.11651464 0.11054911 0.91200006
-0.11480762 0.11079154 0.91400003
-0.11309204 0.11103398 0.91600007
-0.11136784 0.11127641 0.91800004
-0.10939673 0.11127641 0.91800004
-0.10742562 0.11127641 0.91800004
-0.10533963 0.1111552 0.91700006
-0.10314521 0.11091276 0.91500002
-0.10106996 0.11079154 0.91400003
-0.099107429 0.11079154 0.91400003
-0.096932344 0.11054911 0.91200006
-0.094974115 0.11054911 0.91200006
-0.093015887 0.11054911 0.91200006
-0.091057651 0.11054911 0.91200006
-0.08909943 0.11054911 0.91200006
-0.087141201 0.11054911 0.91200006
-0.085089564 0.1104279 0.91100007
-0.083133481 0.1104279 0.91100007
-0.081266515 0.11054911 0.91200006
-0.079308279 0.11054911 0.91200006
-0.07726524 0.1104279 0.91100007
-0.075474486 0.11067033 0.91300005
-0.07359463 0.11079154 0.91400003
-0.071710482 0.11091276 0.91500002
-0.069745809 0.11091276 0.91500002
-0.067855217 0.11103398 0.91600007
-0.066032261 0.11127641 0.91800004
-0.06406115 0.11127641 0.91800004
-0.062090036 0.11127641 0.91800004
-0.060184408 0.11139762 0.91900003
-0.058274496 0.11151884 0.92000002
-0.056299087 0.11151884 0.92000002
-0.054264631 0.11139762 0.91900003
-0.052234475 0.11127641 0.91800004
-0.050318114 0.11139762 0.91900003
-0.048292249 0.11127641 0.91800004
-0.046321135 0.11127641 0.91800004
-0.044301715 0.1111552 0.91700006
-0.042332746 0.1111552 0.91700006
-0.040363785 0.1111552 0.91700006
-0.038394816 0.1111552 0.91700006
-0.036386132 0.11103398 0.91600007
-0.034456886 0.1111552 0.91700006
-0.032487925 0.1111552 0.91700006
-0.030518958 0.1111552 0.91700006
-0.028518861 0.11103398 0.91600007
-0.026523054 0.11091276 0.91500002
-0.024558384 0.11091276 0.91500002
-0.022593712 0.11091276 0.91500002
-0.020606497 0.11079154 0.91400003
-0.018643973 0.11079154 0.91400003
-0.016681449 0.11079154 0.91400003
-0.014718927 0.11079154 0.91400003
-0.012756403 0.11079154 0.91400003
-0.010793879 0.11079154 0.91400003
-0.0088410182 0.11091276 0.91500002
-0.0068763471 0.11091276 0.91500002
-0.0049224128 0.1111552 0.91700006
-0.0029566684 0.11127641 0.91800004
-0.00098770321 0.11151884 0.92000002
0.00098877691 0.11164006 0.92100006
0.0029695514 0.11176127 0.92200005
0.0049492526 0.11176127 0.92200005
0.0069289533 0.11176127 0.92200005
0.0089086546 0.11176127 0.92200005
0.010876546 0.11164006 0.92100006
0.012826186 0.11139762 0.91900003
0.014799446 0.11139762 0.91900003
0.016772706 0.11139762 0.91900003
0.018725567 0.11127641 0.91800004
0.020696679 0.11127641 0.91800004
0.022667792 0.11127641 0.91800004
0.024585225 0.11103398 0.91600007
0.026523054 0.11091276 0.91500002
0.028487725 0.11091276 0.91500002
0.030419113 0.11079154 0.91400003
0.032381639 0.11079154 0.91400003
0.034306586 0.11067033 0.91300005
0.036227241 0.11054911 0.91200006
0.038101725 0.11030668 0.91000003
0.03996763 0.11006425 0.90800005
0.041824937 0.10982181 0.90600002
0.043625351 0.10945817 0.90300006
0.045513798 0.10933696 0.90200007
0.047292739 0.1089733 0.89900005
0.0491683 0.10885209 0.89800006
0.051096469 0.10885209 0.89800006
0.052965585 0.10873087 0.89700001
0.054891609 0.10873087 0.89700001
0.056817632 0.10873087 0.89700001
0.058678161 0.10860965 0.89600003
0.060534403 0.10848844 0.89500004
0.062386349 0.10836722 0.89400005
0.064233996 0.10824601 0.89300007
0.066077344 0.10812479 0.89200002
0.067916408 0.10800357 0.89100003
0.069751181 0.10788236 0.89000005
0.071581654 0.10776114 0.88900006
0.073490493 0.10776114 0.88900006
0.075484149 0.10788236 0.89000005
0.07756906 0.10812479 0.89200002
0.07957346 0.10824601 0.89300007
0.081490889 0.10824601 0.89300007
0.083688527 0.10860965 0.89600003
0.085612401 0.10860965 0.89600003
0.087536275 0.10860965 0.89600003
0.089460149 0.10860965 0.89600003
0.091486014 0.10873087 0.89700001
0.093307897 0.10860965 0.89600003
0.095231779 0.10860965 0.89600003
0.097155645 0.10860965 0.89600003
0.09907952 0.10860965 0.89600003
0.10100339 0.10860965 0.89600003
0.10269753 0.10836722 0.89400005
0.10450009 0.10824601 0.89300007
0.10641751 0.10824601 0.89300007
0.10833495 0.10824601 0.89300007
0.11000545 0.10800357 0.89100003
0.11191859 0.10800357 0.89100003
0.11383173 0.10800357 0.89100003
0.11587477 0.10812479 0.89200002
0.11779006 0.10812479 0.89200002
0.11983955 0.10824601 0.89300007
0.12175699 0.10824601 0.89300007
0.12367441 0.10824601 0.89300007
0.12559184 0.10824601 0.89300007
0.12750928 0.10824601 0.89300007
0.1294267 0.10824601 0.89300007
0.13134414 0.10824601 0.89300007
0.13296312 0.10800357 0.89100003
0.13487625 0.10800357 0.89100003
0.13663587 0.10788236 0.89000005
0.1388582 0.10812479 0.89200002
0.14093131 0.10824601 0.89300007
0.14316866 0.10848844 0.89500004
0.1452525 0.10860965 0.89600003
0.14734064 0.10873087 0.89700001
0.14959948 0.1089733 0.89900005
0.15169835 0.10909452 0.90000004
0.15380152 0.10921573 0.90100002
0.15573612 0.10921573 0.90100002
0.15749572 0.10909452 0.90000004
nan nan nan
nan nan nan
nan nan nan
0.18395115 0.12145857 1.0020001
0.18628836 0.12157977 1.003
0.18844198 0.12157977 1.003
0.1905956 0.12157977 1.003
0.19274922 0.12157977 1.003
0.19490284 0.12157977 1.003
0.19666353 0.12133735 1.001
0.19861424 0.12121613 1
0.20035991 0.1209737 0.99800003
0.20229989 0.12085249 0.99700004
0.20423557 0.12073126 0.99600005
0.20595975 0.12048883 0.99400002
0.20746601 0.12012519 0.99100006
0.20938237 0.12000398 0.99000007
0.21108077 0.11976153 0.98800004
0.21255483 0.11939789 0.98500007
0.21401598 0.11903425 0.98200005
0.21568434 0.1187918 0.98000002
0.21712188 0.11842816 0.97700006
nan nan nan
nan nan nan
nan nan nan
nan nan nan
nan nan nan
0.2144261 0.11054911 0.91200006
0.21519801 0.10994303 0.90700006
0.21546963 0.10909452 0.90000004
0.21643585 0.10860965 0.89600003
0.21762861 0.10824601 0.89300007
0.21880849 0.10788236 0.89000005
0.22047149 0.10776114 0.88900006
0.22162989 0.10739749 0.88600004
0.2227754 0.10703384 0.88300002
0.22390804 0.1066702 0.88000005
0.22451463 0.10606412 0.87500006
0.22509973 0.10545804 0.87000006
0.2251416 0.10460952 0.86300004
0.22462735 0.10351858 0.85400003
0.22460482 0.10267007 0.84700006
0.22535416 0.1021852 0.84300005
0.22662528 0.10194276 0.84100002
0.22788785 0.10170034 0.83900005
0.22859426 0.10121547 0.83500004
0.22983535 0.10097304 0.83300006
0.23106781 0.10073061 0.83100003
0.23257193 0.10060939 0.83000004
0.23407173 0.10048818 0.82900006
0.23528273 0.10024574 0.82700002
0.23705845 0.10024574 0.82700002
0.23883416 0.10024574 0.82700002
0.24060988 0.10024574 0.82700002
0.2423856 0.10024574 0.82700002
0.2438661 0.10012452 0.82600003
0.2450449 0.099882096 0.82400006
0.24651465 0.099760875 0.82300001
0.24737674 0.099397227 0.82000005
0.24852975 0.099154793 0.81800002
0.24936825 0.098791152 0.81500006
0.25050193 0.09854871 0.81300002
0.2522476 0.09854871 0.81300002
0.25336844 0.098306283 0.81100005
0.25510982 0.098306283 0.81100005
0.25685117 0.098306283 0.81100005
0.25859255 0.098306283 0.81100005
0.2603339 0.098306283 0.81100005
0.26142895 0.098063849 0.80900002
0.26349133 0.09818507 0.81000006
0.26490307 0.098063849 0.80900002
0.26664016 0.098063849 0.80900002
0.26837721 0.098063849 0.80900002
0.2701143 0.098063849 0.80900002
0.27185136 0.098063849 0.80900002
0.27358842 0.098063849 0.80900002
0.27532551 0.098063849 0.80900002
0.27672011 0.097942635 0.80800003
0.27845502 0.097942635 0.80800003
0.28053671 0.098063849 0.80900002
0.28262272 0.09818507 0.81000006
0.284713 0.098306283 0.81100005
0.28680757 0.098427497 0.81200004
0.28890643 0.09854871 0.81300002
0.29100958 0.098669931 0.81400001
0.29275739 0.098669931 0.81400001
0.29522881 0.098912366 0.81600004
0.29734486 0.099033579 0.81700003
0.2998313 0.099276014 0.81900007
0.3030628 0.099760875 0.82300001
0.30557072 0.10000331 0.82500005
0.30883226 0.10048818 0.82900006
0.31136164 0.10073061 0.83100003
0.31314594 0.10073061 0.83100003
0.31606722 0.10109425 0.83400005
0.31823906 0.10121547 0.83500004
0.32003197 0.10121547 0.83500004
0.32182488 0.10121547 0.83500004
0.32439288 0.1014579 0.83700001
0.32657981 0.10157912 0.83800006
0.328771 0.10170034 0.83900005
0.33136049 0.10194276 0.84100002
0.3339586 0.1021852 0.84300005
0.33696356 0.10254885 0.84600002
0.33958098 0.10279128 0.84800005
0.34180439 0.10291249 0.84900004
0.34403208 0.10303371 0.85000002
0.34667096 0.10327615 0.85200006
0.34972748 0.10363979 0.85500002
0.3515633 0.10363979 0.85500002
0.35381252 0.10376101 0.85600007
0.35606596 0.10388222 0.85700005
nan nan nan
nan nan nan
nan nan nan
nan nan nan
0.36313555 0.10327615 0.85200006
0.36496496 0.10327615 0.85200006
0.36679435 0.10327615 0.85200006
0.36862376 0.10327615 0.85200006
0.37001833 0.10315493 0.85100001
0.3718456 0.10315493 0.85100001
0.37411195 0.10327615 0.85200006
0.37594134 0.10327615 0.85200006
0.37777075 0.10327615 0.85200006
0.38004568 0.10339736 0.85300004
0.38187724 0.10339736 0.85300004
0.38460842 0.10363979 0.85500002
0.38644427 0.10363979 0.85500002
0.38737187 0.10339736 0.85300004
0.38874716 0.10327615 0.85200006
0.38965967 0.10303371 0.85000002
0.39148477 0.10303371 0.85000002
0.39238447 0.10279128 0.84800005
0.39327553 0.10254885 0.84600002
0.39415804 0.10230642 0.84400004
0.39550111 0.1021852 0.84300005
0.39683989 0.10206398 0.84200007
0.39817432 0.10194276 0.84100002
0.39902893 0.10170034 0.83900005
0.40035266 0.10157912 0.83800006
0.40263188 0.10170034 0.83900005
0.40539744 0.10194276 0.84100002
0.40768743 0.10206398 0.84200007
0.4099817 0.1021852 0.84300005
0.41228023 0.10230642 0.84400004
0.41507372 0.10254885 0.84600002
0.41836858 0.10291249 0.84900004
0.42118135 0.10315493 0.85100001
0.42350572 0.10327615 0.85200006
0.42833042 0.10400344 0.85800004
0.43318087 0.10473073 0.86400002
0.43553957 0.10485195 0.86500007
0.43891388 0.1052156 0.86800003
0.44230106 0.10557925 0.87100005
0.44927078 0.10679141 0.88100004
0.45423508 0.10751871 0.88700002
0.45871088 0.10812479 0.89200002
nan nan nan
nan nan nan
nan nan nan
nan nan nan
nan nan nan
nan nan nan
nan nan nan
nan nan nan
nan nan nan
nan nan nan
nan nan nan
nan nan nan
nan nan nan
nan nan nan
nan nan nan
nan nan nan
nan nan nan
nan nan nan
nan nan nan
nan nan nan
nan nan nan
nan nan nan
nan nan nan
nan nan nan
nan nan nan
nan nan nan
nan nan nan
nan nan nan
nan nan nan
nan nan nan
nan nan nan
nan nan nan
nan nan nan
nan nan nan
nan nan nan
nan nan nan
nan nan nan
nan nan nan
nan nan nan
nan nan nan
nan nan nan
nan nan nan
-0.34052682 0.099060744 0.80300003
nan nan nan
-0.33791801 0.09930747 0.80500007
-0.33660716 0.099430837 0.80600005
-0.33529198 0.099554196 0.80700004
-0.33397254 0.099677555 0.80800003
-0.3322376 0.099677555 0.80800003
-0.33091173 0.099800922 0.80900002
-0.32917464 0.099800922 0.80900002
-0.32743758 0.099800922 0.80900002
-0.32610315 0.099924289 0.81000006
-0.32476437 0.10004765 0.81100005
-0.3234213 0.10017101 0.81200004
-0.32207394 0.10029437 0.81300002
-0.32072228 0.10041773 0.81400001
-0.31936634 0.1005411 0.81500006
-0.31878552 0.10091119 0.81800002
nan nan nan
nan nan nan
-0.34417811 0.11078026 0.89800006
-0.34148768 0.11053353 0.89600003
-0.34107971 0.11102698 0.90000004
-0.33990091 0.11127371 0.90200007
-0.33796418 0.11127371 0.90200007
-0.3352823 0.11102698 0.90000004
-0.33260909 0.11078026 0.89800006
-0.32994443 0.11053353 0.89600003
-0.32728836 0.1102868 0.89400005
-0.32282117 0.10942326 0.88700002
-0.31657502 0.1079429 0.87500006
-0.31217864 0.10707936 0.86800003
-0.30995739 0.10695599 0.86700004
-0.30809578 0.10695599 0.86700004
-0.30623421 0.10695599 0.86700004
-0.30437258 0.10695599 0.86700004
-0.30216208 0.10683263 0.86600006
-0.30064937 0.10695599 0.86700004
-0.29913238 0.10707936 0.86800003
-0.29726863 0.10707936 0.86800003
-0.29574519 0.10720272 0.86900002
-0.29387927 0.10720272 0.86900002
-0.29268548 0.10744945 0.87100005
-0.29114917 0.10757281 0.87200004
-0.28927681 0.10757281 0.87200004
-0.28740448 0.10757281 0.87200004
-0.28553212 0.10757281 0.87200004
-0.28365979 0.10757281 0.87200004
-0.2821106 0.10769617 0.87300003
-0.27927312 0.10732608 0.87000006
-0.2770862 0.10720272 0.86900002
-0.2752203 0.10720272 0.86900002
-0.27398354 0.10744945 0.87100005
-0.27273816 0.10769617 0.87300003
-0.27179447 0.10806626 0.87600005
-0.27145413 0.10868308 0.88100004
-0.27201027 0.10966999 0.88900006
-0.27131671 0.11016344 0.89300007
-0.27000266 0.11041017 0.89500004
-0.26867998 0.11065689 0.89700001
-0.2679435 0.11115035 0.90100002
-0.26659939 0.11139707 0.90300006
-0.26466045 0.11139707 0.90300006
-0.2630125 0.11152044 0.90400004
-0.26164901 0.11176716 0.90600002
-0.2597037 0.11176716 0.90600002
-0.25804287 0.11189053 0.90700006
-0.25694242 0.11226062 0.91000003
-0.25498849 0.11226062 0.91000003
-0.25331262 0.11238398 0.91100007
-0.25135654 0.11238398 0.91100007
-0.24912667 0.11226062 0.91000003
-0.24717274 0.11226062 0.91000003
-0.2452188 0.11226062 0.91000003
-0.24299756 0.11213725 0.90900004
-0.24078061 0.11201389 0.90800005
-0.23883095 0.11201389 0.90800005
-0.23714221 0.11213725 0.90900004
-0.23544914 0.11226062 0.91000003
-0.23349521 0.11226062 0.91000003
-0.23154126 0.11226062 0.91000003
-0.22958733 0.11226062 0.91000003
-0.22763342 0.11226062 0.91000003
-0.22567946 0.11226062 0.91000003
-0.22372553 0.11226062 0.91000003
-0.22177158 0.11226062 0.91000003
-0.21933456 0.11201389 0.90800005
-0.2171455 0.11189053 0.90700006
-0.21519801 0.11189053 0.90700006
-0.21325052 0.11189053 0.90700006
-0.21130303 0.11189053 0.90700006
-0.20958634 0.11201389 0.90800005
-0.20786537 0.11213725 0.90900004
-0.20591359 0.11213725 0.90900004
-0.20418619 0.11226062 0.91000003
-0.20245449 0.11238398 0.91100007
-0.20071849 0.11250734 0.91200006
-0.19876026 0.11250734 0.91200006
-0.19701782 0.11263071 0.91300005
-0.19505744 0.11263071 0.91300005
-0.19309707 0.11263071 0.91300005
-0.19050863 0.11226062 0.91000003
-0.1885547 0.11226062 0.91000003
-0.18639572 0.11213725 0.90900004
-0.18424103 0.11201389 0.90800005
-0.18229139 0.11201389 0.90800005
-0.18073897 0.11226062 0.91000003
-0.1789815 0.11238398 0.91100007
-0.17741406 0.11263071 0.91300005
-0.17583802 0.11287743 0.91500002
-0.17425342 0.11312416 0.91700006
-0.1717208 0.11275407 0.91400003
-0.16975829 0.11275407 0.91400003
-0.1674286 0.11250734 0.91200006
-0.16510749 0.11226062 0.91000003
-0.16297427 0.11213725 0.90900004
-0.16066819 0.11189053 0.90700006
-0.15889569 0.11201389 0.90800005
-0.1571189 0.11213725 0.90900004
-0.15533781 0.11226062 0.91000003
-0.15338388 0.11226062 0.91000003
-0.15142995 0.11226062 0.91000003
-0.14947601 0.11226062 0.91000003
-0.14752208 0.11226062 0.91000003
-0.14556813 0.11226062 0.91000003
-0.1436142 0.11226062 0.91000003
-0.1415046 0.11213725 0.90900004
-0.13970634 0.11226062 0.91000003
-0.1377524 0.11226062 0.91000003
-0.13579847 0.11226062 0.91000003
-0.13384452 0.11226062 0.91000003
-0.13174567 0.11213725 0.90900004
-0.12965108 0.11201389 0.90800005
-0.12742016 0.11176716 0.90600002
-0.12547481 0.11176716 0.90600002
-0.12325679 0.11152044 0.90400004
-0.12118154 0.11139707 0.90300006
-0.11937468 0.11152044 0.90400004
-0.11782334 0.11189053 0.90700006
-0.11625911 0.11226062 0.91000003
-0.1145564 0.11250734 0.91200006
-0.1128451 0.11275407 0.91400003
-0.11100389 0.11287743 0.91500002
-0.10903922 0.11287743 0.91500002
-0.10707454 0.11287743 0.91500002
-0.104995 0.11275407 0.91400003
-0.10291976 0.11263071 0.91300005
-0.1008488 0.11250734 0.91200006
-0.098782137 0.11238398 0.91100007
-0.096719772 0.11226062 0.91000003
-0.094765835 0.11226062 0.91000003
-0.092811897 0.11226062 0.91000003
-0.09085796 0.11226062 0.91000003
-0.088904031 0.11226062 0.91000003
-0.086950094 0.11226062 0.91000003
-0.084902756 0.11213725 0.90900004
-0.082859717 0.11201389 0.90800005
-0.08082097 0.11189053 0.90700006
-0.078786515 0.11176716 0.90600002
-0.076925986 0.11189053 0.90700006
-0.075061157 0.11201389 0.90800005
-0.073272556 0.11226062 0.91000003
-0.071475364 0.11250734 0.91200006
-0.069593355 0.11263071 0.91300005
-0.067707054 0.11275407 0.91400003
-0.065816469 0.11287743 0.91500002
-0.063921586 0.1130008 0.91600007
-0.061954763 0.1130008 0.91600007
-0.059987944 0.1130008 0.91600007
-0.058147814 0.11324752 0.91800004
-0.0561767 0.11324752 0.91800004
-0.054146539 0.11312416 0.91700006
-0.052120674 0.1130008 0.91600007
-0.05020861 0.11312416 0.91700006
-0.04818704 0.1130008 0.91600007
-0.046220221 0.1130008 0.91600007
-0.044205088 0.11287743 0.91500002
-0.042240418 0.11287743 0.91500002
-0.040319767 0.1130008 0.91600007
-0.038311075 0.11287743 0.91500002
-0.036306687 0.11275407 0.91400003
-0.034381736 0.11287743 0.91500002
-0.032381639 0.11275407 0.91400003
-0.030419113 0.11275407 0.91400003
-0.028456591 0.11275407 0.91400003
-0.026494067 0.11275407 0.91400003
-0.024504704 0.11263071 0.91300005
-0.022544328 0.11263071 0.91300005
-0.020561406 0.11250734 0.91200006
-0.018623576 0.11263071 0.91300005
-0.016644949 0.11250734 0.91200006
-0.01468672 0.11250734 0.91200006
-0.01272849 0.11250734 0.91200006
-0.01077026 0.11250734 0.91200006
-0.0088023692 0.11238398 0.91100007
-0.0068538021 0.11250734 0.91200006
-0.0049009407 0.11263071 0.91300005
-0.0029437852 0.11275407 0.91400003
-0.00098448258 0.11312416 0.91700006
0.00098448258 0.11312416 0.91700006
0.0029566684 0.11324752 0.91800004
0.0049277805 0.11324752 0.91800004
0.0068988926 0.11324752 0.91800004
0.0088700047 0.11324752 0.91800004
0.010841117 0.11324752 0.91800004
0.012784316 0.1130008 0.91600007
0.014751135 0.1130008 0.91600007
0.016717954 0.1130008 0.91600007
0.018684771 0.1130008 0.91600007
0.020629043 0.11287743 0.91500002
0.022569021 0.11275407 0.91400003
0.024531545 0.11275407 0.91400003
0.026494067 0.11275407 0.91400003
0.028456591 0.11275407 0.91400003
0.030419113 0.11275407 0.91400003
0.032346211 0.11263071 0.91300005
0.034306586 0.11263071 0.91300005
0.036227241 0.11250734 0.91200006
0.038101725 0.11226062 0.91000003
0.040011644 0.11213725 0.90900004
0.041824937 0.11176716 0.90600002
0.043625351 0.11139707 0.90300006
0.045513798 0.11127371 0.90200007
0.047345344 0.11102698 0.90000004
0.04922305 0.11090362 0.89900005
0.051096469 0.11078026 0.89800006
0.053024638 0.11078026 0.89800006
0.054891609 0.11065689 0.89700001
0.056817632 0.11065689 0.89700001
0.058678161 0.11053353 0.89600003
0.060466766 0.1102868 0.89400005
0.062386349 0.1102868 0.89400005
0.064162068 0.11004008 0.89200002
0.06600327 0.10991671 0.89100003
0.067916408 0.10991671 0.89100003
0.069751181 0.10979335 0.89000005
0.071581654 0.10966999 0.88900006
0.073490493 0.10966999 0.88900006
0.075484149 0.10979335 0.89000005
0.077482104 0.10991671 0.89100003
0.07957346 0.11016344 0.89300007
0.081399627 0.11004008 0.89200002
0.083408326 0.11016344 0.89300007
0.085421309 0.1102868 0.89400005
0.087340884 0.1102868 0.89400005
0.089260459 0.1102868 0.89400005
0.091282032 0.11041017 0.89500004
0.092995487 0.11016344 0.89300007
0.094912924 0.11016344 0.89300007
0.096830353 0.11016344 0.89300007
0.098747782 0.11016344 0.89300007
0.10055248 0.11004008 0.89200002
0.10246778 0.11004008 0.89200002
0.10426603 0.10991671 0.89100003
0.10606001 0.10979335 0.89000005
0.10784969 0.10966999 0.88900006
0.10975853 0.10966999 0.88900006
0.11166737 0.10966999 0.88900006
0.11357622 0.10966999 0.88900006
0.11561497 0.10979335 0.89000005
0.11765801 0.10991671 0.89100003
0.11970534 0.11004008 0.89200002
0.12175699 0.11016344 0.89300007
0.12367441 0.11016344 0.89300007
0.12559184 0.11016344 0.89300007
0.12765206 0.1102868 0.89400005
0.1294267 0.11016344 0.89300007
0.13149123 0.1102868 0.89400005
0.13326158 0.11016344 0.89300007
0.13517901 0.11016344 0.89300007
0.13709645 0.11016344 0.89300007
0.13932522 0.11041017 0.89500004
0.14124693 0.11041017 0.89500004
0.14332862 0.11053353 0.89600003
0.14541461 0.11065689 0.89700001
0.14766915 0.11090362 0.89900005
0.14993228 0.11115035 0.90100002
0.15203546 0.11127371 0.90200007
0.15414292 0.11139707 0.90300006
0.15590897 0.11127371 0.90200007
0.15784572 0.11127371 0.90200007
0.15995961 0.11139707 0.90300006
nan nan nan
nan nan nan
0.18376757 0.12348668 1.001
0.18610264 0.12361005 1.0020001
0.18825412 0.12361005 1.0020001
0.1905956 0.1237334 1.003
0.19274922 0.1237334 1.003
0.19490284 0.1237334 1.003
0.19686002 0.12361005 1.0020001
0.19861424 0.12336331 1
0.20035991 0.12311658 0.99800003
0.20250279 0.12311658 0.99800003
0.20444062 0.12299322 0.99700004
0.20616697 0.1227465 0.99500006
0.20767535 0.1223764 0.99200004
0.20938237 0.12212969 0.99000007
0.21108077 0.12188295 0.98800004
0.21255483 0.12151287 0.98500007
0.21401598 0.12114277 0.98200005
0.21568434 0.12089604 0.98000002
0.21689965 0.1204026 0.97600007
nan nan nan
0.13410433 0.073031083 0.59200001
nan nan nan
nan nan nan
nan nan nan
0.21466121 0.11263071 0.91300005
0.21567254 0.11213725 0.90900004
0.21594845 0.11127371 0.90200007
0.21667741 0.11065689 0.89700001
0.21762861 0.11016344 0.89300007
0.21856263 0.10966999 0.88900006
0.22022349 0.10954662 0.88800007
0.22137976 0.10917653 0.88500005
0.22252311 0.10880644 0.88200003
0.22339915 0.10831299 0.87800002
0.22451463 0.1079429 0.87500006
0.22484098 0.10720272 0.86900002
0.22435895 0.10609245 0.86000001
0.22383825 0.10498217 0.85100001
0.22407445 0.104242 0.84500003
0.22481951 0.10374855 0.84100002
0.22608635 0.10350182 0.83900005
0.2273446 0.10325509 0.83700001
0.22832049 0.10288501 0.83400005
0.22955942 0.10263827 0.83200002
0.23078975 0.10239155 0.83000004
0.23201153 0.10214483 0.82800007
0.23350701 0.10202146 0.82700002
0.23471375 0.10177474 0.82500005
0.23648515 0.10177474 0.82500005
0.23796777 0.10165137 0.82400006
0.24002801 0.10177474 0.82500005
0.24179943 0.10177474 0.82500005
0.24327563 0.10165137 0.82400006
0.24445012 0.10140464 0.82200003
0.24591559 0.10128128 0.82100004
0.24677336 0.10091119 0.81800002
0.24761829 0.1005411 0.81500006
0.24875629 0.10029437 0.81300002
0.24988571 0.10004765 0.81100005
0.25131682 0.099924289 0.81000006
0.25305602 0.099924289 0.81000006
0.25448069 0.099800922 0.80900002
0.25621775 0.099800922 0.80900002
0.25795484 0.099800922 0.80900002
0.25969189 0.099800922 0.80900002
0.26142895 0.099800922 0.80900002
0.26316601 0.099800922 0.80900002
0.26457563 0.099677555 0.80800003
0.26631057 0.099677555 0.80800003
0.26804549 0.099677555 0.80800003
0.26978043 0.099677555 0.80800003
0.27117932 0.099554196 0.80700004
0.27291209 0.099554196 0.80700004
0.27430454 0.099430837 0.80600005
0.27603516 0.099430837 0.80600005
0.27776581 0.099430837 0.80600005
0.2794964 0.099430837 0.80600005
0.28157598 0.099554196 0.80700004
0.28365979 0.099677555 0.80800003
0.28539473 0.099677555 0.80800003
0.287485 0.099800922 0.80900002
0.28993708 0.10004765 0.81100005
0.29167846 0.10004765 0.81100005
0.29378161 0.10017101 0.81200004
0.29552513 0.10017101 0.81200004
0.29763472 0.10029437 0.81300002
0.30048513 0.10066447 0.81600004
0.30371878 0.10115792 0.82000005
0.30734211 0.10177474 0.82500005
0.30986291 0.10202146 0.82700002
0.31201547 0.10214483 0.82800007
0.31493026 0.10251492 0.83100003
0.31747684 0.10276164 0.83300006
0.31926546 0.10276164 0.83300006
0.32105404 0.10276164 0.83300006
0.32284266 0.10276164 0.83300006
0.32541066 0.10300837 0.83500004
0.32798725 0.10325509 0.83700001
0.3301785 0.10337846 0.83800006
0.33316627 0.10374855 0.84100002
0.33616698 0.10411864 0.84400004
0.33878008 0.10436536 0.84600002
0.34099922 0.10448873 0.84700006
0.34322259 0.10461209 0.84800005
0.34545028 0.10473546 0.84900004
0.3476823 0.10485882 0.85000002
0.34909621 0.10473546 0.84900004
0.35050586 0.10461209 0.84800005
nan nan nan
nan nan nan
nan nan nan
nan nan nan
nan nan nan
nan nan nan
0.36410823 0.10485882 0.85000002
0.3655028 0.10473546 0.84900004
0.36689314 0.10461209 0.84800005
0.36827913 0.10448873 0.84700006
0.37053475 0.10461209 0.84800005
0.37191647 0.10448873 0.84700006
0.37417635 0.10461209 0.84800005
0.37599719 0.10461209 0.84800005
0.3782635 0.10473546 0.84900004
0.38008648 0.10473546 0.84900004
0.38235927 0.10485882 0.85000002
0.38508835 0.10510555 0.85200006
0.38646358 0.10498217 0.85100001
0.38783458 0.10485882 0.85000002
0.38920125 0.10473546 0.84900004
0.39056364 0.10461209 0.84800005
0.39145902 0.10436536 0.84600002
0.39188093 0.10399528 0.84300005
0.39229 0.10362519 0.84000003
0.39315531 0.10337846 0.83800006
0.39448333 0.10325509 0.83700001
0.39533362 0.10300837 0.83500004
0.39712653 0.10300837 0.83500004
0.3989194 0.10300837 0.83500004
0.40167207 0.10325509 0.83700001
0.40443337 0.10350182 0.83900005
0.40720323 0.10374855 0.84100002
0.4099817 0.10399528 0.84300005
0.41179177 0.10399528 0.84300005
0.41458309 0.104242 0.84500003
0.41689023 0.10436536 0.84600002
0.4196966 0.10461209 0.84800005
0.42151743 0.10461209 0.84800005
0.42383742 0.10473546 0.84900004
0.4266631 0.10498217 0.85100001
0.4300009 0.10535227 0.85400003
0.43234026 0.10547563 0.85500002
0.43468395 0.105599 0.85600007
0.4431513 0.10720272 0.86900002
0.44552934 0.10732608 0.87000006
0.44996867 0.1079429 0.87500006
nan nan nan
nan nan nan
nan nan nan
nan nan nan
nan nan nan
nan nan nan
nan nan nan
nan nan nan
nan nan nan
nan nan nan
nan nan nan
nan nan nan
nan nan nan
nan nan nan
nan nan nan
nan nan nan
nan nan nan
nan nan nan
nan nan nan
nan nan nan
nan nan nan
nan nan nan
nan nan nan
nan nan nan
nan nan nan
nan nan nan
nan nan nan
nan nan nan
nan nan nan
nan nan nan
nan nan nan
nan nan nan
nan nan nan
nan nan nan
nan nan nan
nan nan nan
nan nan nan
nan nan nan
nan nan nan
nan nan nan
nan nan nan
nan nan nan
-0.34052682 0.10078492 0.80300003
-0.33964649 0.10103595 0.80500007
-0.33791801 0.10103595 0.80500007
-0.33702478 0.10128696 0.80700004
-0.33570746 0.10141248 0.80800003
-0.33397254 0.10141248 0.80800003
-0.33264878 0.10153798 0.80900002
-0.33091173 0.10153798 0.80900002
-0.32917464 0.10153798 0.80900002
-0.32784235 0.1016635 0.81000006
-0.32610315 0.1016635 0.81000006
-0.32476437 0.10178901 0.81100005
-0.32381961 0.10204003 0.81300002
-0.32207394 0.10204003 0.81300002
-0.3211163 0.10229106 0.81500006
-0.31975821 0.10241656 0.81600004
-0.31956497 0.1029186 0.82000005
-0.31896698 0.10329513 0.82300001
nan nan nan
-0.34341156 0.11245739 0.89600003
-0.34110653 0.11233189 0.89500004
-0.34032178 0.11270842 0.89800006
-0.33877042 0.11283393 0.89900005
-0.33646542 0.11270842 0.89800006
-0.33379215 0.11245739 0.89600003
-0.33112752 0.11220638 0.89400005
-0.32663026 0.1113278 0.88700002
-0.32033259 0.10982168 0.87500006
-0.31554222 0.10881759 0.86700004
-0.31295702 0.10856657 0.86500007
-0.31074005 0.10844106 0.86400002
-0.30852735 0.10831555 0.86300004
-0.30702972 0.10844106 0.86400002
-0.30517456 0.10844106 0.86400002
-0.30331936 0.10844106 0.86400002
-0.30181316 0.10856657 0.86500007
-0.29995584 0.10856657 0.86500007
-0.29878777 0.10881759 0.86700004
-0.29692614 0.10881759 0.86700004
-0.29540488 0.1089431 0.86800003
-0.2935411 0.1089431 0.86800003
-0.29201341 0.10906861 0.86900002
-0.29048142 0.10919413 0.87000006
-0.28861335 0.10919413 0.87000006
-0.2864157 0.10906861 0.86900002
-0.2845498 0.10906861 0.86900002
-0.28268391 0.10906861 0.86900002
-0.28081799 0.10906861 0.86900002
-0.27863109 0.1089431 0.86800003
-0.27676734 0.1089431 0.86800003
-0.2749036 0.1089431 0.86800003
-0.27366897 0.10919413 0.87000006
-0.27242574 0.10944515 0.87200004
-0.27148423 0.10982168 0.87500006
-0.27052978 0.11019821 0.87800002
-0.27139831 0.1113278 0.88700002
-0.27101287 0.11195535 0.89200002
-0.26970097 0.11220638 0.89400005
-0.26838046 0.11245739 0.89600003
-0.26705134 0.11270842 0.89800006
-0.26571366 0.11295944 0.90000004
-0.26407427 0.11308495 0.90100002
-0.26243064 0.11321046 0.90200007
-0.26078266 0.11333597 0.90300006
-0.25913039 0.11346148 0.90400004
-0.25747386 0.11358699 0.90500003
-0.255813 0.1137125 0.90600002
-0.25414789 0.11383802 0.90700006
-0.25247842 0.11396353 0.90800005
-0.25052881 0.11396353 0.90800005
-0.24830538 0.11383802 0.90700006
-0.24608627 0.1137125 0.90600002
