# .PCD v0.7 - Point Cloud Data file format
VERSION 0.7
FIELDS x y z
SIZE 4 4 4
TYPE F F F
COUNT 1 1 1
WIDTH 1557
HEIGHT 1
VIEWPOINT 0 0 0 1 0 0 0
POINTS 1557
DATA ascii
0.043394528 0.071557812 0.94000006
0.045412879 0.071557812 0.94000006
0.047380771 0.071481682 0.93900007
0.049396977 0.071481682 0.93900007
0.051413178 0.071481682 0.93900007
0.05348628 0.071557812 0.94000006
0.055504631 0.071557812 0.94000006
0.057522982 0.071557812 0.94000006
0.059541333 0.071557812 0.94000006
0.061625168 0.071633935 0.94100004
0.063645668 0.071633935 0.94100004
0.065596387 0.071557812 0.94000006
0.067614734 0.071557812 0.94000006
0.069484919 0.071405552 0.93800002
0.071498983 0.071405552 0.93800002
0.073434666 0.07132943 0.93700004
0.075446576 0.07132943 0.93700004
0.077458479 0.07132943 0.93700004
0.079470389 0.07132943 0.93700004
0.081482299 0.07132943 0.93700004
0.083583318 0.071405552 0.93800002
0.085597366 0.071405552 0.93800002
0.087518021 0.07132943 0.93700004
0.089529932 0.07132943 0.93700004
0.091541849 0.07132943 0.93700004
0.093354061 0.071177185 0.93500006
0.095055707 0.070948802 0.93200004
0.096848607 0.070796557 0.93000007
0.098420344 0.070492052 0.92600006
0.10008333 0.070263676 0.92300004
0.10173343 0.070035301 0.92000002
0.10325794 0.069730803 0.91600007
0.104995 0.069578551 0.91400003
0.10684051 0.069502421 0.91300005
0.10868172 0.069426298 0.91200006
0.11063995 0.069426298 0.91200006
0.11259818 0.069426298 0.91200006
0.1145564 0.069426298 0.91200006
0.11664239 0.069502421 0.91300005
0.11873267 0.069578551 0.91400003
0.1206952 0.069578551 0.91400003
0.12279192 0.069654673 0.91500002
0.12489294 0.069730803 0.91600007
0.12685975 0.069730803 0.91600007
0.12896721 0.069806926 0.91700006
0.13107896 0.069883049 0.91800004
0.13305007 0.069883049 0.91800004
0.13502119 0.069883049 0.91800004
0.13699231 0.069883049 0.91800004
0.13911478 0.069959171 0.91900003
0.14124157 0.070035301 0.92000002
0.14321698 0.070035301 0.92000002
0.1453502 0.070111431 0.92100006
0.14748771 0.070187554 0.92200005
0.14962953 0.070263676 0.92300004
0.15177564 0.070339799 0.92400002
0.15375963 0.070339799 0.92400002
0.15574363 0.070339799 0.92400002
0.15772763 0.070339799 0.92400002
0.15953878 0.070263676 0.92300004
0.16152062 0.070263676 0.92300004
0.16332532 0.070187554 0.92200005
0.16530503 0.070187554 0.92200005
0.16728473 0.070187554 0.92200005
0.16926444 0.070187554 0.92200005
0.1710584 0.070111431 0.92100006
0.17303596 0.070111431 0.92100006
0.17520355 0.070187554 0.92200005
0.17718323 0.070187554 0.92200005
0.17896862 0.070111431 0.92100006
0.18094617 0.070111431 0.92100006
0.18292373 0.070111431 0.92100006
0.18510205 0.070187554 0.92200005
0.18728465 0.070263676 0.92300004
0.18906145 0.070187554 0.92200005
0.19124836 0.070263676 0.92300004
0.19302084 0.070187554 0.92200005
0.19500054 0.070187554 0.92200005
0.19698024 0.070187554 0.92200005
0.19895995 0.070187554 0.92200005
0.20093966 0.070187554 0.92200005
0.20269927 0.070111431 0.92100006
0.20445459 0.070035301 0.92000002
0.20642999 0.070035301 0.92000002
0.20863192 0.070111431 0.92100006
0.21038079 0.070035301 0.92000002
0.21258703 0.070111431 0.92100006
0.21456459 0.070111431 0.92100006
0.21701238 0.070263676 0.92300004
0.21899422 0.070263676 0.92300004
0.22097607 0.070263676 0.92300004
0.22295792 0.070263676 0.92300004
0.22493975 0.070263676 0.92300004
0.22642991 0.070111431 0.92100006
0.22766346 0.069883049 0.91800004
0.22888415 0.069654673 0.91500002
0.22983964 0.069350176 0.91100007
0.23077795 0.06904567 0.90700006
0.23246886 0.068969548 0.90600002
0.23363799 0.068741173 0.90300006
0.23557691 0.068741173 0.90300006
0.23751581 0.068741173 0.90300006
0.2397199 0.068817295 0.90400004
0.24166094 0.068817295 0.90400004
0.24333251 0.068741173 0.90300006
0.24527143 0.068741173 0.90300006
0.24721032 0.068741173 0.90300006
0.24914923 0.068741173 0.90300006
0.25164425 0.068893418 0.90500003
nan nan nan
0.27614251 0.074450567 0.97800004
0.27824247 0.074450567 0.97800004
0.28005576 0.074374445 0.97700006
0.28157595 0.074222192 0.97500002
0.28308758 0.074069947 0.97300005
0.28488368 0.073993817 0.97200006
0.28638029 0.073841564 0.97000003
0.2872735 0.073537067 0.96600002
0.28844911 0.073308691 0.96300006
0.28961179 0.073080316 0.96000004
0.29076159 0.072851934 0.95700002
0.2922045 0.072699688 0.95500004
0.29425505 0.072699688 0.95500004
0.29599535 0.072623566 0.95400006
0.29741892 0.072471313 0.95200002
0.2991485 0.072395183 0.95100003
0.30055705 0.072242938 0.94900006
0.30227587 0.072166815 0.94800007
0.30334839 0.071938433 0.94500005
0.30473113 0.07178618 0.94300002
0.30545476 0.071481682 0.93900007
0.30485138 0.070872679 0.93100005
0.30091777 0.069502421 0.91300005
0.29823378 0.068436667 0.89900005
0.29315248 0.066838033 0.87800002
0.29201341 0.066152908 0.86900002
0.29320294 0.066000655 0.86700004
0.29438391 0.06584841 0.86500007
0.29589871 0.06577228 0.86400002
0.29706466 0.065620035 0.86200005
0.29822198 0.065467782 0.86000001
0.29971963 0.065391652 0.85900003
0.301213 0.06531553 0.85800004
0.30199566 0.065087155 0.85500002
0.30276543 0.064858779 0.85200006
0.30423728 0.064782649 0.85100001
0.30570489 0.064706527 0.85000002
0.30680642 0.064554282 0.84800005
0.30789933 0.064402021 0.84600002
0.30861756 0.064173654 0.84300005
0.30895469 0.063869148 0.83900005
0.30853382 0.063412398 0.83300006
0.30808717 0.062955648 0.82700002
0.30911356 0.062803395 0.82500005
0.31013131 0.062651142 0.82300001
0.31189844 0.062651142 0.82300001
0.31290331 0.062498894 0.82100004
0.31466618 0.062498894 0.82100004
0.31604359 0.062422771 0.82000005
0.31780428 0.062422771 0.82000005
0.31917524 0.062346645 0.81900007
0.32054192 0.062270515 0.81800002
0.3219043 0.062194392 0.81700003
0.32247007 0.061966013 0.81400001
0.32381961 0.061889891 0.81300002
0.32476437 0.061737642 0.81100005
0.32570052 0.061585389 0.80900002
0.32743758 0.061585389 0.80900002
0.32876775 0.061509263 0.80800003
0.32968464 0.061357014 0.80600005
0.33141524 0.061357014 0.80600005
0.33273256 0.061280891 0.80500007
0.33404553 0.061204761 0.80400002
0.33535427 0.061128639 0.80300003
0.33707842 0.061128639 0.80300003
0.33880264 0.061128639 0.80300003
0.34095088 0.061204761 0.80400002
0.34267721 0.061204761 0.80400002
0.34526029 0.061357014 0.80600005
0.3478519 0.061509263 0.80800003
0.35001948 0.061585389 0.80900002
0.35262617 0.061737642 0.81100005
0.35524145 0.061889891 0.81300002
0.3574262 0.061966013 0.81400001
0.36005649 0.062118266 0.81600004
0.362252 0.062194392 0.81700003
0.36445177 0.062270515 0.81800002
0.36620817 0.062270515 0.81800002
0.36796457 0.062270515 0.81800002
0.36972097 0.062270515 0.81800002
0.37193149 0.062346645 0.81900007
0.37414631 0.062422771 0.82000005
0.37682384 0.06257502 0.82200003
0.3785888 0.06257502 0.82200003
0.3798911 0.062498894 0.82100004
0.3816539 0.062498894 0.82100004
0.38388377 0.06257502 0.82200003
0.38471043 0.062422771 0.82000005
0.38647112 0.062422771 0.82000005
0.38917872 0.06257502 0.82200003
0.40330935 0.064554282 0.84800005
0.40608561 0.064706527 0.85000002
0.40887052 0.064858779 0.85200006
0.41214603 0.065087155 0.85500002
0.41495025 0.065239407 0.85700005
0.4167904 0.065239407 0.85700005
0.41863054 0.065239407 0.85700005
0.42047068 0.065239407 0.85700005
0.4223108 0.065239407 0.85700005
0.42365602 0.065163285 0.85600007
0.42549402 0.065163285 0.85600007
0.42733198 0.065163285 0.85600007
0.42866856 0.065087155 0.85500002
0.43050441 0.065087155 0.85500002
0.43234026 0.065087155 0.85500002
0.43417612 0.065087155 0.85500002
0.43499205 0.064934902 0.85300004
0.43631151 0.064858779 0.85200006
0.43762663 0.064782649 0.85100001
nan nan nan
nan nan nan
nan nan nan
nan nan nan
nan nan nan
nan nan nan
nan nan nan
nan nan nan
nan nan nan
nan nan nan
nan nan nan
nan nan nan
nan nan nan
nan nan nan
nan nan nan
nan nan nan
nan nan nan
nan nan nan
nan nan nan
nan nan nan
nan nan nan
nan nan nan
nan nan nan
nan nan nan
nan nan nan
nan nan nan
nan nan nan
nan nan nan
nan nan nan
nan nan nan
nan nan nan
nan nan nan
nan nan nan
nan nan nan
nan nan nan
nan nan nan
nan nan nan
nan nan nan
nan nan nan
nan nan nan
nan nan nan
nan nan nan
nan nan nan
nan nan nan
nan nan nan
nan nan nan
nan nan nan
nan nan nan
nan nan nan
nan nan nan
nan nan nan
nan nan nan
nan nan nan
nan nan nan
nan nan nan
nan nan nan
nan nan nan
nan nan nan
nan nan nan
nan nan nan
nan nan nan
nan nan nan
nan nan nan
nan nan nan
nan nan nan
nan nan nan
nan nan nan
nan nan nan
nan nan nan
nan nan nan
nan nan nan
nan nan nan
nan nan nan
nan nan nan
nan nan nan
nan nan nan
nan nan nan
nan nan nan
-0.28296411 0.06387037 0.81600004
-0.28121203 0.06387037 0.81600004
-0.27980238 0.063948639 0.81700003
-0.27804813 0.063948639 0.81700003
-0.27595571 0.06387037 0.81600004
-0.27386758 0.063792095 0.81500006
-0.27211764 0.063792095 0.81500006
-0.27069941 0.06387037 0.81600004
-0.26927692 0.063948639 0.81700003
-0.2678501 0.064026915 0.81800002
-0.2660937 0.064026915 0.81800002
-0.26498362 0.064183459 0.82000005
-0.26386493 0.064340003 0.82200003
-0.26241881 0.064418271 0.82300001
-0.26096839 0.064496547 0.82400006
-0.25919911 0.064496547 0.82400006
-0.25774226 0.064574823 0.82500005
-0.25628111 0.064653091 0.82600003
-0.25481564 0.064731367 0.82700002
-0.25303993 0.064731367 0.82700002
-0.25187185 0.064887911 0.82900006
-0.25160024 0.065279275 0.83400005
-0.25190622 0.065827176 0.84100002
-0.25158733 0.06621854 0.84600002
-0.25154227 0.06668818 0.85200006
-0.25235069 0.067392632 0.86100006
-0.2522476 0.067862265 0.86700004
nan nan nan
-0.26572332 0.072558619 0.92700005
-0.2654399 0.073028252 0.93300003
-0.26456597 0.07334134 0.93700004
-0.26255408 0.07334134 0.93700004
-0.26082021 0.073419616 0.93800002
-0.25935802 0.07357616 0.94000006
-0.25733966 0.07357616 0.94000006
-0.25504971 0.073497891 0.93900007
-0.25249451 0.07334134 0.93700004
-0.25048262 0.07334134 0.93700004
-0.2476752 0.07310652 0.93400002
-0.24461761 0.072793439 0.93000007
-0.24027279 0.072088987 0.92100006
-0.23700155 0.071697623 0.91600007
-0.23400839 0.071384534 0.91200006
-0.23255903 0.071541071 0.91400003
-0.23034422 0.071462803 0.91300005
-0.22813371 0.071384534 0.91200006
-0.22617547 0.071384534 0.91200006
-0.22397138 0.071306258 0.91100007
-0.22177158 0.071227983 0.91000003
-0.21909299 0.07099317 0.90700006
-0.2171455 0.07099317 0.90700006
-0.21496074 0.070914894 0.90600002
-0.21301539 0.070914894 0.90600002
-0.21083708 0.070836619 0.90500003
-0.2091247 0.070914894 0.90600002
-0.20740803 0.07099317 0.90700006
-0.20591359 0.071149714 0.90900004
-0.2039618 0.071149714 0.90900004
-0.20223226 0.071227983 0.91000003
-0.20027831 0.071227983 0.91000003
-0.19832438 0.071227983 0.91000003
-0.19658624 0.071306258 0.91100007
-0.1948438 0.071384534 0.91200006
-0.19330856 0.071541071 0.91400003
-0.19176474 0.071697623 0.91600007
-0.19041954 0.071932435 0.91900003
-0.18885639 0.072088987 0.92100006
-0.18728465 0.072245523 0.92300004
-0.18590508 0.072480343 0.92600006
-0.18451263 0.072715163 0.92900002
-0.18330377 0.073028252 0.93300003
-0.18207774 0.07334134 0.93700004
-0.18045017 0.073497891 0.93900007
-0.17881402 0.073654436 0.94100004
-0.17716928 0.073810972 0.94300002
-0.17533022 0.073889248 0.94400007
-0.17330329 0.073889248 0.94400007
-0.17145778 0.073967524 0.94500005
-0.16960798 0.074045792 0.94600004
-0.16704531 0.073810972 0.94300002
-0.16449554 0.07357616 0.94000006
-0.16195865 0.07334134 0.93700004
-0.15994674 0.07334134 0.93700004
-0.15776628 0.073263071 0.93600005
-0.15559012 0.073184796 0.93500006
-0.15325397 0.073028252 0.93300003
-0.15173699 0.073263071 0.93600005
-0.14972723 0.073263071 0.93600005
-0.14771746 0.073263071 0.93600005
-0.14570771 0.073263071 0.93600005
-0.14369795 0.073263071 0.93600005
-0.14183956 0.07334134 0.93700004
-0.13982765 0.07334134 0.93700004
-0.13781574 0.07334134 0.93700004
-0.13580383 0.07334134 0.93700004
-0.13379192 0.07334134 0.93700004
-0.13178001 0.07334134 0.93700004
-0.1297681 0.07334134 0.93700004
-0.12789255 0.073419616 0.93800002
-0.1257443 0.07334134 0.93700004
-0.12373238 0.07334134 0.93700004
-0.12185038 0.073419616 0.93800002
-0.11996409 0.073497891 0.93900007
-0.11845031 0.073810972 0.94300002
-0.11642552 0.073810972 0.94300002
-0.11440073 0.073810972 0.94300002
-0.11237594 0.073810972 0.94300002
-0.11035115 0.073810972 0.94300002
-0.10832636 0.073810972 0.94300002
-0.10618884 0.073732704 0.94200003
-0.10394504 0.07357616 0.94000006
-0.10181826 0.073497891 0.93900007
-0.099695764 0.073419616 0.93800002
-0.097681709 0.073419616 0.93800002
-0.095565662 0.07334134 0.93700004
-0.093553752 0.07334134 0.93700004
-0.09144415 0.073263071 0.93600005
-0.089434385 0.073263071 0.93600005
-0.087331221 0.073184796 0.93500006
-0.085232347 0.07310652 0.93400002
-0.083226882 0.07310652 0.93400002
-0.08130838 0.073184796 0.93500006
-0.079470389 0.07334134 0.93700004
-0.077541143 0.073419616 0.93800002
-0.075527094 0.073419616 0.93800002
-0.073591411 0.073497891 0.93900007
-0.071575209 0.073497891 0.93900007
-0.069559 0.073497891 0.93900007
-0.067542806 0.073497891 0.93900007
-0.065526597 0.073497891 0.93900007
-0.063578032 0.07357616 0.94000006
-0.061559681 0.07357616 0.94000006
-0.059477992 0.073497891 0.93900007
-0.057584178 0.073654436 0.94100004
-0.055563677 0.073654436 0.94100004
-0.05348628 0.07357616 0.94000006
-0.051413178 0.073497891 0.93900007
-0.049396977 0.073497891 0.93900007
-0.047380771 0.073497891 0.93900007
-0.04536457 0.073497891 0.93900007
-0.043256033 0.07334134 0.93700004
-0.041244127 0.07334134 0.93700004
-0.039232217 0.07334134 0.93700004
-0.03722031 0.07334134 0.93700004
-0.0352084 0.07334134 0.93700004
-0.033196494 0.07334134 0.93700004
-0.031217864 0.073419616 0.93800002
-0.02920381 0.073419616 0.93800002
-0.027189754 0.073419616 0.93800002
-0.025175698 0.073419616 0.93800002
-0.023186335 0.073497891 0.93900007
-0.021147586 0.073419616 0.93800002
-0.019133531 0.073419616 0.93800002
-0.017119475 0.073419616 0.93800002
-0.015089315 0.07334134 0.93700004
-0.013077406 0.07334134 0.93700004
-0.011089117 0.073497891 0.93900007
-0.0090729138 0.073497891 0.93900007
-0.0070642256 0.07357616 0.94000006
-0.0050458754 0.07357616 0.94000006
-0.0030275253 0.07357616 0.94000006
-0.0010102487 0.073654436 0.94100004
0.0010102487 0.073654436 0.94100004
0.003030746 0.073654436 0.94100004
0.0050512436 0.073654436 0.94100004
0.0070717409 0.073654436 0.94100004
0.0090825763 0.07357616 0.94000006
0.011100926 0.07357616 0.94000006
0.013119277 0.07357616 0.94000006
0.015137628 0.07357616 0.94000006
0.017137727 0.073497891 0.93900007
0.019133531 0.073419616 0.93800002
0.021125041 0.07334134 0.93700004
0.023136951 0.07334134 0.93700004
0.025122019 0.073263071 0.93600005
0.027102794 0.073184796 0.93500006
0.029141542 0.073263071 0.93600005
0.03111802 0.073184796 0.93500006
0.033125639 0.073184796 0.93500006
0.0352084 0.07334134 0.93700004
0.03722031 0.07334134 0.93700004
0.039232217 0.07334134 0.93700004
0.041244127 0.07334134 0.93700004
0.043256033 0.07334134 0.93700004
0.045267947 0.07334134 0.93700004
0.047279853 0.07334134 0.93700004
0.049291763 0.07334134 0.93700004
0.05130367 0.07334134 0.93700004
0.05331558 0.07334134 0.93700004
0.055327486 0.07334134 0.93700004
0.057339396 0.07334134 0.93700004
0.059351306 0.07334134 0.93700004
0.061363209 0.07334134 0.93700004
0.063375123 0.07334134 0.93700004
0.065387033 0.07334134 0.93700004
0.067327015 0.073263071 0.93600005
0.069262691 0.073184796 0.93500006
0.071270309 0.073184796 0.93500006
0.07327792 0.073184796 0.93500006
0.075285539 0.073184796 0.93500006
0.077210478 0.07310652 0.93400002
0.079215951 0.07310652 0.93400002
0.08130838 0.073184796 0.93500006
0.083405107 0.073263071 0.93600005
0.085323609 0.073184796 0.93500006
0.087331221 0.073184796 0.93500006
0.089147739 0.073028252 0.93300003
0.091053359 0.072949976 0.93200004
0.093054533 0.072949976 0.93200004
0.094749726 0.072715163 0.92900002
0.096536189 0.072558619 0.92700005
0.098420344 0.072480343 0.92600006
0.10008333 0.072245523 0.92300004
0.10184402 0.072088987 0.92100006
0.10337067 0.071775891 0.91700006
0.104995 0.071541071 0.91400003
0.10684051 0.071462803 0.91300005
0.10844338 0.071227983 0.91000003
0.11039732 0.071227983 0.91000003
0.11222779 0.071149714 0.90900004
0.11405396 0.071071438 0.90800005
0.1160036 0.071071438 0.90800005
0.11795325 0.071071438 0.90800005
0.12003494 0.071149714 0.90900004
0.12212092 0.071227983 0.91000003
0.12421121 0.071306258 0.91100007
0.12616728 0.071306258 0.91100007
0.12826401 0.071384534 0.91200006
0.13036503 0.071462803 0.91300005
0.1323254 0.071462803 0.91300005
0.13428578 0.071462803 0.91300005
0.13624616 0.071462803 0.91300005
0.13835791 0.071541071 0.91400003
0.14062749 0.071697623 0.91600007
0.14290564 0.071854167 0.91800004
0.14487675 0.071854167 0.91800004
0.14716779 0.072010711 0.92000002
0.14930531 0.072088987 0.92100006
0.15144712 0.072167255 0.92200005
0.15342683 0.072167255 0.92200005
0.15557508 0.072245523 0.92300004
0.15755694 0.072245523 0.92300004
0.15919308 0.072088987 0.92100006
0.16117063 0.072088987 0.92100006
0.16297103 0.072010711 0.92000002
0.16494644 0.072010711 0.92000002
0.16674042 0.071932435 0.91900003
0.16853009 0.071854167 0.91800004
0.17050122 0.071854167 0.91800004
0.17247233 0.071854167 0.91800004
0.17444344 0.071854167 0.91800004
0.17660671 0.071932435 0.91900003
0.17838566 0.071854167 0.91800004
0.18035677 0.071854167 0.91800004
0.18232788 0.071854167 0.91800004
0.18429899 0.071854167 0.91800004
0.1862701 0.071854167 0.91800004
0.18844627 0.071932435 0.91900003
0.19062674 0.072010711 0.92000002
0.19281149 0.072088987 0.92100006
0.19478905 0.072088987 0.92100006
0.1967666 0.072088987 0.92100006
0.19874416 0.072088987 0.92100006
0.20072171 0.072088987 0.92100006
0.20225909 0.071932435 0.91900003
0.20401011 0.071854167 0.91800004
0.20598124 0.071854167 0.91800004
0.20795234 0.071854167 0.91800004
0.20992345 0.071854167 0.91800004
0.21189456 0.071854167 0.91800004
0.21386568 0.071854167 0.91800004
0.21630701 0.072010711 0.92000002
0.21828243 0.072010711 0.92000002
0.22025783 0.072010711 0.92000002
0.22223324 0.072010711 0.92000002
0.22420864 0.072010711 0.92000002
0.22569235 0.071854167 0.91800004
0.22667146 0.071541071 0.91400003
0.22763342 0.071227983 0.91000003
0.22857815 0.070914894 0.90600002
0.22976017 0.070680074 0.90300006
0.23092933 0.070445262 0.90000004
0.23260304 0.070366986 0.89900005
0.23453338 0.070366986 0.89900005
0.23620066 0.070288718 0.89800006
0.23812884 0.070288718 0.89800006
0.24032432 0.070366986 0.89900005
0.2414462 0.070132166 0.89600003
0.2436417 0.070210442 0.89700001
0.24529396 0.070132166 0.89600003
0.24749374 0.070210442 0.89700001
nan nan nan
nan nan nan
0.27698958 0.076785333 0.98100007
0.27881145 0.076707058 0.98000002
0.28062904 0.076628789 0.97900003
0.28215355 0.076472245 0.97700006
0.28366947 0.076315694 0.97500002
0.28517678 0.076159149 0.97300005
0.28667554 0.076002613 0.97100008
0.28816566 0.075846061 0.96900004
0.28964722 0.075689517 0.96700007
0.29081851 0.075454697 0.96400005
0.29228073 0.07529816 0.96200007
0.29342839 0.07506334 0.95900005
0.29487127 0.074906789 0.95700002
0.29630563 0.074750245 0.95500004
0.29804376 0.074671976 0.95400006
0.29946306 0.074515425 0.95200002
0.30087376 0.074358888 0.95000005
0.30227587 0.074202344 0.94800007
0.30334839 0.073967524 0.94500005
0.30473113 0.073810972 0.94300002
0.30350298 0.073028252 0.93300003
nan nan nan
nan nan nan
nan nan nan
0.29315248 0.068723261 0.87800002
0.29268548 0.068175361 0.87100005
0.2935411 0.067940541 0.86800003
0.29472423 0.067783996 0.86600006
0.29589871 0.067627445 0.86400002
0.29706466 0.067470908 0.86200005
0.29822198 0.067314357 0.86000001
0.29971963 0.067236088 0.85900003
0.30086195 0.067079544 0.85700005
0.30164245 0.066844724 0.85400003
0.30276543 0.06668818 0.85200006
0.3038798 0.066531636 0.85000002
0.30498561 0.066375092 0.84800005
0.30608279 0.06621854 0.84600002
0.30680749 0.065983728 0.84300005
0.30788535 0.065827176 0.84100002
0.30858645 0.065592363 0.83800006
0.30853382 0.065200999 0.83300006
0.30845973 0.064809643 0.82800007
0.30911356 0.064574823 0.82500005
0.31013131 0.064418271 0.82300001
0.31151947 0.064340003 0.82200003
0.3125222 0.064183459 0.82000005
0.31428289 0.064183459 0.82000005
0.31527275 0.064026915 0.81800002
0.31702915 0.064026915 0.81800002
0.31878552 0.064026915 0.81800002
0.32015005 0.063948639 0.81700003
0.3211163 0.063792095 0.81500006
0.32207394 0.06363555 0.81300002
0.32222638 0.063322462 0.80900002
0.32356301 0.063244186 0.80800003
0.32489535 0.063165918 0.80700004
0.32622337 0.063087642 0.80600005
0.32795399 0.063087642 0.80600005
0.32886654 0.062931098 0.80400002
0.33059287 0.062931098 0.80400002
0.33190587 0.062852822 0.80300003
0.33321458 0.062774554 0.80200005
0.33451903 0.062696286 0.80100006
0.33623889 0.062696286 0.80100006
0.33795881 0.062696286 0.80100006
0.34010276 0.062774554 0.80200005
0.342251 0.062852822 0.80300003
0.34440354 0.062931098 0.80400002
0.34699091 0.063087642 0.80600005
0.34872153 0.063087642 0.80600005
0.35132176 0.063244186 0.80800003
0.35349363 0.063322462 0.80900002
0.35566983 0.063400738 0.81000006
0.35829151 0.063557275 0.81200004
0.3604784 0.06363555 0.81300002
0.36222407 0.06363555 0.81300002
0.3644174 0.063713819 0.81400001
0.36616522 0.063713819 0.81400001
0.36791304 0.063713819 0.81400001
0.37056911 0.06387037 0.81600004
0.37323377 0.064026915 0.81800002
0.37544858 0.06410519 0.81900007
0.37766767 0.064183459 0.82000005
0.37896568 0.06410519 0.81900007
0.38072419 0.06410519 0.81900007
0.38201571 0.064026915 0.81800002
0.3837721 0.064026915 0.81800002
0.3855285 0.064026915 0.81800002
0.38823181 0.064183459 0.82000005
0.39094371 0.064340003 0.82200003
nan nan nan
0.4079107 0.066531636 0.85000002
0.41069993 0.06668818 0.85200006
0.41349769 0.066844724 0.85400003
0.41581771 0.066922992 0.85500002
0.41765353 0.066922992 0.85500002
0.41948941 0.066922992 0.85500002
0.42132524 0.066922992 0.85500002
0.42316106 0.066922992 0.85500002
0.42499691 0.066922992 0.85500002
0.42683274 0.066922992 0.85500002
0.42866856 0.066922992 0.85500002
0.4300009 0.066844724 0.85400003
0.43183461 0.066844724 0.85400003
0.43366832 0.066844724 0.85400003
0.43499205 0.066766448 0.85300004
0.43631151 0.06668818 0.85200006
0.43762663 0.066609904 0.85100001
nan nan nan
nan nan nan
nan nan nan
nan nan nan
nan nan nan
nan nan nan
nan nan nan
nan nan nan
nan nan nan
nan nan nan
nan nan nan
nan nan nan
nan nan nan
nan nan nan
nan nan nan
nan nan nan
nan nan nan
nan nan nan
nan nan nan
nan nan nan
nan nan nan
nan nan nan
nan nan nan
nan nan nan
nan nan nan
nan nan nan
nan nan nan
nan nan nan
nan nan nan
nan nan nan
nan nan nan
nan nan nan
nan nan nan
nan nan nan
nan nan nan
nan nan nan
nan nan nan
nan nan nan
nan nan nan
nan nan nan
nan nan nan
nan nan nan
nan nan nan
nan nan nan
nan nan nan
nan nan nan
nan nan nan
nan nan nan
nan nan nan
nan nan nan
nan nan nan
nan nan nan
nan nan nan
nan nan nan
nan nan nan
nan nan nan
nan nan nan
nan nan nan
nan nan nan
nan nan nan
nan nan nan
nan nan nan
nan nan nan
nan nan nan
nan nan nan
nan nan nan
nan nan nan
nan nan nan
nan nan nan
nan nan nan
nan nan nan
nan nan nan
nan nan nan
nan nan nan
nan nan nan
nan nan nan
nan nan nan
nan nan nan
nan nan nan
-0.28190124 0.065783307 0.81800002
-0.28014484 0.065783307 0.81800002
-0.27872881 0.065863729 0.81900007
-0.27663204 0.065783307 0.81800002
-0.27453965 0.065702885 0.81700003
-0.27245152 0.065622471 0.81600004
-0.27103114 0.065702885 0.81700003
-0.2696065 0.065783307 0.81800002
-0.26850498 0.06594415 0.82000005
-0.26674432 0.06594415 0.82000005
-0.26562992 0.066104986 0.82200003
-0.26418594 0.066185407 0.82300001
-0.26273769 0.066265829 0.82400006
-0.2612851 0.06634625 0.82500005
-0.25951368 0.06634625 0.82500005
-0.25774226 0.06634625 0.82500005
-0.25628111 0.066426665 0.82600003
-0.25450751 0.066426665 0.82600003
-0.25303993 0.066507086 0.82700002
-0.25156802 0.066587508 0.82800007
-0.25099686 0.066909187 0.83200002
-0.25190622 0.067632958 0.84100002
-0.25158733 0.068035059 0.84600002
-0.25124702 0.068437159 0.85100001
-0.2514714 0.069000095 0.85800004
-0.25166574 0.069563039 0.86500007
-0.25067478 0.069804296 0.86800003
nan nan nan
-0.26344839 0.074468635 0.92600006
-0.26287186 0.074870735 0.93100005
-0.26199368 0.075192414 0.93500006
-0.2602641 0.075272836 0.93600005
-0.25825435 0.075272836 0.93600005
-0.25651833 0.07535325 0.93700004
-0.25369158 0.075111993 0.93400002
-0.25114718 0.074951157 0.93200004
-0.2478094 0.074549057 0.92700005
-0.24502343 0.074307792 0.92400002
-0.24040912 0.073503599 0.91400003
-0.23505513 0.072458141 0.90100002
-0.23260304 0.072297305 0.89900005
-0.23067275 0.072297305 0.89900005
-0.22925128 0.072458141 0.90100002
-0.227569 0.072538562 0.90200007
-0.2258824 0.072618984 0.90300006
-0.22394347 0.072618984 0.90300006
-0.22200456 0.072618984 0.90300006
-0.21982196 0.072538562 0.90200007
-0.21764365 0.072458141 0.90100002
-0.21546963 0.072377726 0.90000004
-0.2132999 0.072297305 0.89900005
-0.21136957 0.072297305 0.89900005
-0.20943926 0.072297305 0.89900005
-0.20750895 0.072297305 0.89900005
-0.2058073 0.072377726 0.90000004
-0.2043279 0.072538562 0.90200007
-0.20261553 0.072618984 0.90300006
-0.20112109 0.072779819 0.90500003
-0.19961807 0.072940663 0.90700006
-0.19832438 0.07318192 0.91000003
-0.19637044 0.07318192 0.91000003
-0.19463016 0.073262341 0.91100007
-0.19309707 0.073423177 0.91300005
-0.19176474 0.073664442 0.91600007
-0.19041954 0.073905699 0.91900003
-0.18885639 0.074066542 0.92100006
-0.18728465 0.074227378 0.92300004
-0.18570434 0.074388221 0.92500007
-0.18411541 0.074549057 0.92700005
-0.1825179 0.074709892 0.92900002
-0.18110614 0.074951157 0.93200004
-0.1794893 0.075111993 0.93400002
-0.1778639 0.075272836 0.93600005
-0.17604201 0.07535325 0.93700004
-0.1740301 0.07535325 0.93700004
-0.1718346 0.075272836 0.93600005
-0.16982485 0.075272836 0.93600005
-0.16781509 0.075272836 0.93600005
-0.16509674 0.074951157 0.93200004
-0.16309558 0.074951157 0.93200004
-0.16126727 0.075031571 0.93300003
-0.15909325 0.074951157 0.93200004
-0.15709206 0.074951157 0.93200004
-0.15509088 0.074951157 0.93200004
-0.15308972 0.074951157 0.93200004
-0.15141276 0.075111993 0.93400002
-0.14956726 0.075192414 0.93500006
-0.14740182 0.075111993 0.93400002
-0.14539637 0.075111993 0.93400002
-0.14339089 0.075111993 0.93400002
-0.14153682 0.075192414 0.93500006
-0.13967842 0.075272836 0.93600005
-0.13752158 0.075192414 0.93500006
-0.13551396 0.075192414 0.93500006
-0.13364914 0.075272836 0.93600005
-0.13163938 0.075272836 0.93600005
-0.1297681 0.07535325 0.93700004
-0.12775621 0.07535325 0.93700004
-0.1257443 0.07535325 0.93700004
-0.12373238 0.07535325 0.93700004
-0.12172047 0.07535325 0.93700004
-0.11970856 0.07535325 0.93700004
-0.11794788 0.075514093 0.93900007
-0.11605514 0.075594515 0.94000006
-0.11403679 0.075594515 0.94000006
-0.11201844 0.075594515 0.94000006
-0.11000008 0.075594515 0.94000006
-0.10786687 0.075514093 0.93900007
-0.1056252 0.07535325 0.93700004
-0.10361329 0.07535325 0.93700004
-0.10160138 0.07535325 0.93700004
-0.099483199 0.075272836 0.93600005
-0.097369298 0.075192414 0.93500006
-0.09536168 0.075192414 0.93500006
-0.093154371 0.075031571 0.93300003
-0.091151059 0.075031571 0.93300003
-0.089052185 0.074951157 0.93200004
-0.087051012 0.074951157 0.93200004
-0.084958583 0.074870735 0.93100005
-0.082959563 0.074870735 0.93100005
-0.081047498 0.074951157 0.93200004
-0.079215951 0.075111993 0.93400002
-0.07729315 0.075192414 0.93500006
-0.075285539 0.075192414 0.93500006
-0.073356293 0.075272836 0.93600005
-0.071422756 0.07535325 0.93700004
-0.069410846 0.07535325 0.93700004
-0.067398943 0.07535325 0.93700004
-0.065387033 0.07535325 0.93700004
-0.063375123 0.07535325 0.93700004
-0.061363209 0.07535325 0.93700004
-0.059351306 0.07535325 0.93700004
-0.057339396 0.07535325 0.93700004
-0.055327486 0.07535325 0.93700004
-0.05331558 0.07535325 0.93700004
-0.05130367 0.07535325 0.93700004
-0.049291763 0.07535325 0.93700004
-0.047279853 0.07535325 0.93700004
-0.045219634 0.075272836 0.93600005
-0.043163706 0.075192414 0.93500006
-0.041156095 0.075192414 0.93500006
-0.03914848 0.075192414 0.93500006
-0.037140865 0.075192414 0.93500006
-0.035095673 0.075111993 0.93400002
-0.033090208 0.075111993 0.93400002
-0.03111802 0.075192414 0.93500006
-0.029141542 0.075272836 0.93600005
-0.027102794 0.075192414 0.93500006
-0.025068339 0.075111993 0.93400002
-0.023038181 0.075031571 0.93300003
-0.021012316 0.074951157 0.93200004
-0.019011142 0.074951157 0.93200004
-0.01700997 0.074951157 0.93200004
-0.015008796 0.074951157 0.93200004
-0.013007623 0.074951157 0.93200004
-0.011018259 0.075031571 0.93300003
-0.0090246014 0.075111993 0.93400002
-0.0070341653 0.075272836 0.93600005
-0.0050297715 0.07535325 0.93700004
-0.003017863 0.07535325 0.93700004
-0.0010059543 0.07535325 0.93700004
0.0010059543 0.07535325 0.93700004
0.003017863 0.07535325 0.93700004
0.0050297715 0.07535325 0.93700004
0.0070491955 0.075433671 0.93800002
0.0090632513 0.075433671 0.93800002
0.011077307 0.075433671 0.93800002
0.013091363 0.075433671 0.93800002
0.015089315 0.07535325 0.93700004
0.017101225 0.07535325 0.93700004
0.019113133 0.07535325 0.93700004
0.021079952 0.075192414 0.93500006
0.023062872 0.075111993 0.93400002
0.0250415 0.075031571 0.93300003
0.02704482 0.075031571 0.93300003
0.029048139 0.075031571 0.93300003
0.031018177 0.074951157 0.93200004
0.033019353 0.074951157 0.93200004
0.035058096 0.075031571 0.93300003
0.037021697 0.074951157 0.93200004
0.039022867 0.074951157 0.93200004
0.041068058 0.075031571 0.93300003
0.043025214 0.074951157 0.93200004
0.045074698 0.075031571 0.93300003
0.047078017 0.075031571 0.93300003
0.049081337 0.075031571 0.93300003
0.051084656 0.075031571 0.93300003
0.053144876 0.075111993 0.93400002
0.055209395 0.075192414 0.93500006
0.057217009 0.075192414 0.93500006
0.059161279 0.075111993 0.93400002
0.061232235 0.075192414 0.93500006
0.06323985 0.075192414 0.93500006
0.065107897 0.075031571 0.93300003
0.067039289 0.074951157 0.93200004
0.069040455 0.074951157 0.93200004
0.070965409 0.074870735 0.93100005
0.072886065 0.074790314 0.93000007
0.074882947 0.074790314 0.93000007
0.076962486 0.074870735 0.93100005
0.078961506 0.074870735 0.93100005
0.080960535 0.074870735 0.93100005
0.082959563 0.074870735 0.93100005
0.084958583 0.074870735 0.93100005
0.086957611 0.074870735 0.93100005
0.088956639 0.074870735 0.93100005
0.090857968 0.074790314 0.93000007
0.092754997 0.074709892 0.92900002
0.094545752 0.074549057 0.92700005
0.096432053 0.074468635 0.92600006
0.098207764 0.074307792 0.92400002
0.10008333 0.074227378 0.92300004
0.10184402 0.074066542 0.92100006
0.10337067 0.073744863 0.91700006
0.104995 0.073503599 0.91400003
0.10672349 0.073342763 0.91200006
0.10844338 0.07318192 0.91000003
0.11003337 0.072940663 0.90700006
0.1118574 0.072860241 0.90600002
0.11355152 0.072699405 0.90400004
0.11549257 0.072699405 0.90400004
0.11730372 0.072618984 0.90300006
0.11924263 0.072618984 0.90300006
0.12118154 0.072618984 0.90300006
0.12312044 0.072618984 0.90300006
0.12505934 0.072618984 0.90300006
0.12713888 0.072699405 0.90400004
0.1293655 0.072860241 0.90600002
0.13131085 0.072860241 0.90600002
0.13310912 0.072779819 0.90500003
0.13520154 0.072860241 0.90600002
0.13744965 0.073021084 0.90800005
0.13985987 0.073262341 0.91100007
0.14212729 0.073423177 0.91300005
0.14424548 0.073503599 0.91400003
0.14652793 0.073664442 0.91600007
0.14898108 0.073905699 0.91900003
0.15095434 0.073905699 0.91900003
0.15292761 0.073905699 0.91900003
0.15506941 0.073986113 0.92000002
0.15704483 0.073986113 0.92000002
0.15884739 0.073905699 0.91900003
0.16064563 0.073825277 0.91800004
0.16261676 0.073825277 0.91800004
0.16440858 0.073744863 0.91700006
0.16637754 0.073744863 0.91700006
0.16816293 0.073664442 0.91600007
0.17012975 0.073664442 0.91600007
0.17209657 0.073664442 0.91600007
0.1740634 0.073664442 0.91600007
0.1760302 0.073664442 0.91600007
0.17760837 0.073503599 0.91400003
0.1795709 0.073503599 0.91400003
0.18153343 0.073503599 0.91400003
0.18349595 0.073503599 0.91400003
0.18566138 0.07358402 0.91500002
0.18762605 0.07358402 0.91500002
0.19000514 0.073744863 0.91700006
0.19197409 0.073744863 0.91700006
0.19415455 0.073825277 0.91800004
0.19612567 0.073825277 0.91800004
0.19809678 0.073825277 0.91800004
0.20006789 0.073825277 0.91800004
0.202039 0.073825277 0.91800004
0.20378789 0.073744863 0.91700006
0.20598124 0.073825277 0.91800004
0.20795234 0.073825277 0.91800004
0.20969477 0.073744863 0.91700006
0.21166374 0.073744863 0.91700006
0.2136327 0.073744863 0.91700006
0.21583679 0.073825277 0.91800004
0.2178079 0.073825277 0.91800004
0.21977901 0.073825277 0.91800004
0.22126701 0.073664442 0.91600007
0.22299011 0.07358402 0.91500002
0.22446309 0.073423177 0.91300005
0.22543146 0.073101498 0.90900004
0.2258824 0.072618984 0.90300006
0.22681211 0.072297305 0.89900005
0.22848797 0.072216883 0.89800006
0.22990297 0.072056048 0.89600003
0.2315681 0.071975626 0.89500004
0.23322897 0.071895204 0.89400005
0.23488551 0.07181479 0.89300007
0.23680295 0.07181479 0.89300007
0.23872037 0.07181479 0.89300007
0.24036832 0.071734361 0.89200002
0.24146877 0.071493112 0.88900006
0.24310385 0.07141269 0.88800007
0.24363098 0.07101059 0.88300002
nan nan nan
nan nan nan
0.27868369 0.079374239 0.98700005
0.27966499 0.07905256 0.98300004
0.28120235 0.078891717 0.98100007
0.28273112 0.078730881 0.97900003
0.28425136 0.078570038 0.97700006
0.28605604 0.078489624 0.97600007
0.28726599 0.078248359 0.97300005
0.28876042 0.078087524 0.97100008
0.29024628 0.07792668 0.96900004
0.29142186 0.077685423 0.96600002
0.29258454 0.077444166 0.96300006
0.29404035 0.077283323 0.96100003
0.29487127 0.076961644 0.95700002
0.2966159 0.076881222 0.95600003
0.29804376 0.076720387 0.95400006
0.29946306 0.076559544 0.95200002
0.30055705 0.076318294 0.94900006
0.30195701 0.076157451 0.94700003
0.30302739 0.075916193 0.94400007
0.30408484 0.075674929 0.94100004
nan nan nan
nan nan nan
nan nan nan
nan nan nan
nan nan nan
nan nan nan
0.2942175 0.069965132 0.87000006
0.29506454 0.069723874 0.86700004
0.29589871 0.069482617 0.86400002
0.29706466 0.069321774 0.86200005
0.2978752 0.069080517 0.85900003
0.29902181 0.068919681 0.85700005
0.30015981 0.068758838 0.85500002
0.30093604 0.068517581 0.85200006
0.3020547 0.068356737 0.85000002
0.30316478 0.068195902 0.84800005
0.3042663 0.068035059 0.84600002
0.30499741 0.067793801 0.84300005
0.3060796 0.067632958 0.84100002
0.30715317 0.067472123 0.83900005
0.30748171 0.067150444 0.83500004
0.30779302 0.066828765 0.83100003
0.30771464 0.066426665 0.82600003
0.30836418 0.066185407 0.82300001
0.30975446 0.066104986 0.82200003
0.31076154 0.06594415 0.82000005
0.3125222 0.06594415 0.82000005
0.31389964 0.065863729 0.81900007
0.31527275 0.065783307 0.81800002
0.31625402 0.065622471 0.81600004
0.3176164 0.06554205 0.81500006
0.31897447 0.065461628 0.81400001
0.31993428 0.065300792 0.81200004
0.32088548 0.065139957 0.81000006
0.3218281 0.064979114 0.80800003
0.3227621 0.064818271 0.80600005
0.32449275 0.064818271 0.80600005
0.32581863 0.064737856 0.80500007
0.32714018 0.064657435 0.80400002
0.32886654 0.064657435 0.80400002
0.33018169 0.064577013 0.80300003
0.33190587 0.064577013 0.80300003
0.33279911 0.064416178 0.80100006
0.33451903 0.064416178 0.80100006
0.33623889 0.064416178 0.80100006
0.33795881 0.064416178 0.80100006
0.33967867 0.064416178 0.80100006
0.34139857 0.064416178 0.80100006
0.34354684 0.064496592 0.80200005
0.34569937 0.064577013 0.80300003
0.34742355 0.064577013 0.80300003
0.35001737 0.064737856 0.80500007
0.35218281 0.064818271 0.80600005
0.3543525 0.064898692 0.80700004
0.35652652 0.064979114 0.80800003
0.35870484 0.065059528 0.80900002
0.36088747 0.065139957 0.81000006
0.36307436 0.065220371 0.81100005
0.36481571 0.065220371 0.81100005
0.36700907 0.065300792 0.81200004
0.36966082 0.065461628 0.81400001
0.37232122 0.065622471 0.81600004
0.37453172 0.065702885 0.81700003
0.37674651 0.065783307 0.81800002
0.37850294 0.065783307 0.81800002
0.38025931 0.065783307 0.81800002
0.38201571 0.065783307 0.81800002
0.3837721 0.065783307 0.81800002
0.3855285 0.065783307 0.81800002
0.38775837 0.065863729 0.81900007
0.39094371 0.066104986 0.82200003
0.39366418 0.066265829 0.82400006
0.40503135 0.067874223 0.84400004
0.40973583 0.068356737 0.85000002
0.41204509 0.068437159 0.85100001
0.41435874 0.068517581 0.85200006
0.41716507 0.068678416 0.85400003
0.41899878 0.068678416 0.85400003
0.42033967 0.068598002 0.85300004
0.42217121 0.068598002 0.85300004
0.42350572 0.068517581 0.85200006
0.4258343 0.068598002 0.85300004
0.42766586 0.068598002 0.85300004
0.42899391 0.068517581 0.85200006
0.43132895 0.068598002 0.85300004
0.43265271 0.068517581 0.85200006
0.4344821 0.068517581 0.85200006
0.43579936 0.068437159 0.85100001
0.43711239 0.068356737 0.85000002
nan nan nan
nan nan nan
nan nan nan
nan nan nan
nan nan nan
nan nan nan
nan nan nan
nan nan nan
nan nan nan
nan nan nan
nan nan nan
nan nan nan
nan nan nan
nan nan nan
nan nan nan
nan nan nan
nan nan nan
nan nan nan
nan nan nan
nan nan nan
nan nan nan
nan nan nan
nan nan nan
nan nan nan
nan nan nan
nan nan nan
nan nan nan
nan nan nan
nan nan nan
nan nan nan
nan nan nan
nan nan nan
nan nan nan
nan nan nan
nan nan nan
nan nan nan
nan nan nan
nan nan nan
nan nan nan
nan nan nan
nan nan nan
nan nan nan
nan nan nan
nan nan nan
nan nan nan
nan nan nan
nan nan nan
nan nan nan
nan nan nan
nan nan nan
nan nan nan
nan nan nan
nan nan nan
nan nan nan
nan nan nan
nan nan nan
nan nan nan
nan nan nan
nan nan nan
nan nan nan
nan nan nan
nan nan nan
nan nan nan
nan nan nan
nan nan nan
nan nan nan
nan nan nan
nan nan nan
nan nan nan
nan nan nan
nan nan nan
nan nan nan
nan nan nan
nan nan nan
nan nan nan
nan nan nan
nan nan nan
nan nan nan
nan nan nan
-0.28190124 0.067539699 0.81800002
-0.28014484 0.067539699 0.81800002
-0.27872881 0.067622267 0.81900007
-0.27697024 0.067622267 0.81900007
-0.27487567 0.067539699 0.81800002
-0.2731193 0.067539699 0.81800002
-0.27136287 0.067539699 0.81800002
-0.26993611 0.067622267 0.81900007
-0.26850498 0.067704834 0.82000005
-0.26674432 0.067704834 0.82000005
-0.26562992 0.067869969 0.82200003
-0.26418594 0.067952529 0.82300001
-0.26305655 0.068117671 0.82500005
-0.2612851 0.068117671 0.82500005
-0.25951368 0.068117671 0.82500005
-0.25805464 0.068200231 0.82600003
-0.25659135 0.068282798 0.82700002
-0.25481564 0.068282798 0.82700002
-0.25303993 0.068282798 0.82700002
-0.25187185 0.068447933 0.82900006
-0.25129858 0.068778202 0.83300006
-0.25160667 0.069356166 0.84000003
-0.25158733 0.06985157 0.84600002
-0.25154227 0.070346974 0.85200006
-0.25176448 0.070924938 0.85900003
-0.25195667 0.071502909 0.86600006
-0.250386 0.071585476 0.86700004
nan nan nan
-0.26202589 0.07604409 0.92100006
-0.26117775 0.076374359 0.92500007
-0.26059264 0.076787189 0.93000007
-0.25915188 0.076952323 0.93200004
-0.25742662 0.077034891 0.93300003
-0.25514951 0.076952323 0.93200004
-0.25260514 0.076787189 0.93000007
-0.24979982 0.076539487 0.92700005
-0.24700741 0.076291785 0.92400002
-0.24184132 0.075300984 0.91200006
nan nan nan
-0.23401161 0.074062482 0.89700001
-0.23182684 0.073979914 0.89600003
-0.23015955 0.074062482 0.89700001
-0.22874241 0.074227616 0.89900005
-0.22681211 0.074227616 0.89900005
-0.22513194 0.074310184 0.90000004
-0.22344747 0.074392743 0.90100002
-0.22151285 0.074392743 0.90100002
-0.21933454 0.074310184 0.90000004
-0.21716054 0.074227616 0.89900005
-0.21475139 0.074062482 0.89700001
-0.21282536 0.074062482 0.89700001
-0.21066423 0.073979914 0.89600003
-0.20874035 0.073979914 0.89600003
-0.20681648 0.073979914 0.89600003
-0.20489261 0.073979914 0.89600003
-0.20296872 0.073979914 0.89600003
-0.20149364 0.074145049 0.89800006
-0.19978769 0.074227616 0.89900005
-0.19807746 0.074310184 0.90000004
-0.19723469 0.074723013 0.90500003
-0.19593887 0.074970715 0.90800005
-0.19441651 0.075135849 0.91000003
-0.19288556 0.075300984 0.91200006
-0.19176474 0.075631253 0.91600007
-0.19021234 0.075796388 0.91800004
-0.18865132 0.075961515 0.92000002
-0.18687885 0.07604409 0.92100006
-0.18530279 0.076209217 0.92300004
-0.18371819 0.076374359 0.92500007
-0.18212497 0.076539487 0.92700005
-0.18052317 0.076704621 0.92900002
-0.17891279 0.076869756 0.93100005
-0.17672375 0.076787189 0.93000007
-0.17472687 0.076787189 0.93000007
-0.17272998 0.076787189 0.93000007
-0.17018235 0.076539487 0.92700005
-0.16801047 0.076456919 0.92600006
-0.16584291 0.076374359 0.92500007
-0.16403389 0.076456919 0.92600006
-0.1622206 0.076539487 0.92700005
-0.16023017 0.076539487 0.92700005
-0.15823974 0.076539487 0.92700005
-0.15641785 0.076622054 0.92800003
-0.15442526 0.076622054 0.92800003
-0.15243268 0.076622054 0.92800003
-0.15092643 0.076869756 0.93100005
-0.14908737 0.076952323 0.93200004
-0.14708619 0.076952323 0.93200004
-0.14508504 0.076952323 0.93200004
-0.14308386 0.076952323 0.93200004
-0.14108269 0.076952323 0.93200004
-0.13908151 0.076952323 0.93200004
-0.13693325 0.076869756 0.93100005
-0.13493423 0.076869756 0.93100005
-0.1329352 0.076869756 0.93100005
-0.13093618 0.076869756 0.93100005
-0.12907563 0.076952323 0.93200004
-0.12707448 0.076952323 0.93200004
-0.1250733 0.076952323 0.93200004
-0.12307213 0.076952323 0.93200004
-0.12094105 0.076869756 0.93100005
-0.11906978 0.076952323 0.93200004
-0.11731982 0.077117451 0.93400002
-0.11568475 0.077365153 0.93700004
-0.11379416 0.07744772 0.93800002
-0.11166093 0.077365153 0.93700004
-0.10964902 0.077365153 0.93700004
-0.10763711 0.077365153 0.93700004
-0.10539975 0.077200025 0.93500006
-0.10317098 0.077034891 0.93300003
-0.10105922 0.076952323 0.93200004
-0.099058054 0.076952323 0.93200004
-0.096952744 0.076869756 0.93100005
-0.094749726 0.076704621 0.92900002
-0.092655152 0.076622054 0.92800003
-0.090564877 0.076539487 0.92700005
-0.088574439 0.076539487 0.92700005
-0.086584002 0.076539487 0.92700005
-0.084593564 0.076539487 0.92700005
-0.082603134 0.076539487 0.92700005
-0.080786616 0.076704621 0.92900002
-0.078961506 0.076869756 0.93100005
-0.07704515 0.076952323 0.93200004
-0.075043984 0.076952323 0.93200004
-0.073042803 0.076952323 0.93200004
-0.071041629 0.076952323 0.93200004
-0.069040455 0.076952323 0.93200004
-0.067039289 0.076952323 0.93200004
-0.065038115 0.076952323 0.93200004
-0.063036941 0.076952323 0.93200004
-0.061035767 0.076952323 0.93200004
-0.059034597 0.076952323 0.93200004
-0.057033423 0.076952323 0.93200004
-0.055091295 0.077034891 0.93300003
-0.053031079 0.076952323 0.93200004
-0.051029906 0.076952323 0.93200004
-0.049028732 0.076952323 0.93200004
-0.047078017 0.077034891 0.93300003
-0.045026388 0.076952323 0.93200004
-0.043025214 0.076952323 0.93200004
-0.04102404 0.076952323 0.93200004
-0.039022867 0.076952323 0.93200004
-0.037021697 0.076952323 0.93200004
-0.034982946 0.076869756 0.93100005
-0.032948494 0.076787189 0.93000007
-0.030984895 0.076869756 0.93100005
-0.029017005 0.076952323 0.93200004
-0.02695786 0.076787189 0.93000007
-0.024960982 0.076787189 0.93000007
-0.02293941 0.076704621 0.92900002
-0.020944677 0.076704621 0.92900002
-0.018949946 0.076704621 0.92900002
-0.016955215 0.076704621 0.92900002
-0.014960485 0.076704621 0.92900002
-0.012965753 0.076704621 0.92900002
-0.010982831 0.076787189 0.93000007
-0.0090052774 0.076952323 0.93200004
-0.0070041046 0.076952323 0.93200004
-0.0050029317 0.076952323 0.93200004
-0.0030017591 0.076952323 0.93200004
-0.0010005863 0.076952323 0.93200004
0.0010005863 0.076952323 0.93200004
0.0030017591 0.076952323 0.93200004
0.0050029317 0.076952323 0.93200004
0.0070191347 0.077117451 0.93400002
0.0090342648 0.077200025 0.93500006
0.011030069 0.077117451 0.93400002
0.013021579 0.077034891 0.93300003
0.015008796 0.076952323 0.93200004
0.01700997 0.076952323 0.93200004
0.018990744 0.076869756 0.93100005
0.020944677 0.076704621 0.92900002
0.022890024 0.076539487 0.92700005
0.024880461 0.076539487 0.92700005
0.026899885 0.076622054 0.92800003
0.028861335 0.076539487 0.92700005
0.03085177 0.076539487 0.92700005
0.032842208 0.076539487 0.92700005
0.034832645 0.076539487 0.92700005
0.036823083 0.076539487 0.92700005
0.038813516 0.076539487 0.92700005
0.040803958 0.076539487 0.92700005
0.042794392 0.076539487 0.92700005
0.044881452 0.076704621 0.92900002
0.046876181 0.076704621 0.92900002
0.048923522 0.076787189 0.93000007
0.050975151 0.076869756 0.93100005
0.053031079 0.076952323 0.93200004
0.05503225 0.076952323 0.93200004
0.057033423 0.076952323 0.93200004
0.059034597 0.076952323 0.93200004
0.061035767 0.076952323 0.93200004
0.063036941 0.076952323 0.93200004
0.064968333 0.076869756 0.93100005
0.066823497 0.076704621 0.92900002
0.068744145 0.076622054 0.92800003
0.070660509 0.076539487 0.92700005
0.072650947 0.076539487 0.92700005
0.074560866 0.076456919 0.92600006
0.07654915 0.076456919 0.92600006
0.078537442 0.076456919 0.92600006
0.080525734 0.076456919 0.92600006
0.082514025 0.076456919 0.92600006
0.084411055 0.076374359 0.92500007
0.086584002 0.076539487 0.92700005
0.088574439 0.076539487 0.92700005
0.090564877 0.076539487 0.92700005
0.092455469 0.076456919 0.92600006
0.09434177 0.076374359 0.92500007
0.096327916 0.076374359 0.92500007
0.098101482 0.076209217 0.92300004
0.099974893 0.07612665 0.92200005
0.10173343 0.075961515 0.92000002
0.10337067 0.075713821 0.91700006
0.104995 0.075466119 0.91400003
0.10684051 0.075383551 0.91300005
0.10844338 0.075135849 0.91000003
0.11015469 0.074970715 0.90800005
0.11173394 0.074723013 0.90500003
0.11342591 0.074557886 0.90300006
0.11536482 0.074557886 0.90300006
0.11717382 0.074475318 0.90200007
0.11884648 0.074310184 0.90000004
0.12064474 0.074227616 0.89900005
0.12257506 0.074227616 0.89900005
0.12450536 0.074227616 0.89900005
0.12643568 0.074227616 0.89900005
0.12850878 0.074310184 0.90000004
0.13044125 0.074310184 0.90000004
0.13237371 0.074310184 0.90000004
0.1344554 0.074392743 0.90100002
0.1365414 0.074475318 0.90200007
0.1387852 0.074640453 0.90400004
0.1410376 0.07480558 0.90600002
0.14345638 0.075053282 0.90900004
0.146208 0.075466119 0.91400003
0.14849475 0.075631253 0.91600007
0.15062582 0.075713821 0.91700006
0.15259479 0.075713821 0.91700006
0.15473232 0.075796388 0.91800004
0.15670343 0.075796388 0.91800004
0.1585017 0.075713821 0.91700006
0.16012065 0.075548686 0.91500002
0.16190818 0.075466119 0.91400003
0.16387071 0.075466119 0.91400003
0.1656518 0.075383551 0.91300005
0.16761218 0.075383551 0.91300005
0.16957256 0.075383551 0.91300005
0.17153293 0.075383551 0.91300005
0.17349331 0.075383551 0.91300005
0.17526151 0.075300984 0.91200006
0.17721973 0.075300984 0.91200006
0.17917797 0.075300984 0.91200006
0.18093759 0.075218417 0.91100007
0.18289366 0.075218417 0.91100007
0.18484975 0.075218417 0.91100007
0.18680584 0.075218417 0.91100007
0.18917632 0.075383551 0.91300005
0.19113669 0.075383551 0.91300005
0.19330856 0.075466119 0.91400003
0.19527109 0.075466119 0.91400003
0.1972336 0.075466119 0.91400003
0.19941407 0.075548686 0.91500002
0.20137875 0.075548686 0.91500002
0.20334342 0.075548686 0.91500002
0.20553248 0.075631253 0.91600007
0.20727275 0.075548686 0.91500002
0.20923741 0.075548686 0.91500002
0.21120209 0.075548686 0.91500002
0.21293379 0.075466119 0.91400003
0.21489632 0.075466119 0.91400003
0.21662159 0.075383551 0.91300005
0.21810316 0.075218417 0.91100007
0.21957611 0.075053282 0.90900004
0.22006565 0.074557886 0.90300006
0.221267 0.074310184 0.90000004
0.22245547 0.074062482 0.89700001
0.22363107 0.07381478 0.89400005
0.22529835 0.073732212 0.89300007
0.22721577 0.073732212 0.89300007
0.22862004 0.073567078 0.89100003
0.23053315 0.073567078 0.89100003
0.23218544 0.07348451 0.89000005
0.23383339 0.07340195 0.88900006
0.23547707 0.073319383 0.88800007
0.23738375 0.073319383 0.88800007
0.23848203 0.073071681 0.88500005
0.23983905 0.072906546 0.88300002
0.2409137 0.072658844 0.88000005
0.24169959 0.072328575 0.87600005
nan nan nan
0.27824569 0.081988901 0.99300003
0.27953076 0.081741199 0.99000007
0.2805185 0.081410937 0.98600006
0.28177565 0.081163235 0.98300004
0.28330871 0.0809981 0.98100007
0.28483322 0.080832966 0.97900003
0.28634915 0.080667831 0.97700006
0.28756124 0.080420129 0.97400004
