# .PCD v0.7 - Point Cloud Data file format
VERSION 0.7
FIELDS x y z
SIZE 4 4 4
TYPE F F F
COUNT 1 1 1
WIDTH 1537
HEIGHT 1
VIEWPOINT 0 0 0 1 0 0 0
POINTS 1537
DATA ascii
0.1922704 0.13670065 0.89100003
0.19374767 0.1363938 0.88900006
0.19499625 0.13593353 0.88600004
0.19623195 0.13547325 0.88300002
0.1972304 0.13485958 0.87900007
0.19821166 0.13424587 0.87500006
0.19963308 0.13393903 0.87300003
nan nan nan
nan nan nan
nan nan nan
nan nan nan
0.20134439 0.12902945 0.84100002
0.20266706 0.12872261 0.83900005
0.20373741 0.12826234 0.83600003
0.20479491 0.12780207 0.83300006
0.20583951 0.12734179 0.83000004
0.20687124 0.12688152 0.82700002
0.20814237 0.12657468 0.82500005
0.20940489 0.12626782 0.82300001
0.21040228 0.12580757 0.82000005
0.21112801 0.12519386 0.81600004
0.21157572 0.12442674 0.81100005
0.21252798 0.12396647 0.80800003
0.21399774 0.12381305 0.80700004
0.21519586 0.1235062 0.80500007
0.21665485 0.12335277 0.80400002
0.21783796 0.12304593 0.80200005
0.21901245 0.12273908 0.80000001
0.2201784 0.12243223 0.79800004
0.22133572 0.12212539 0.79600006
0.22192407 0.1215117 0.79200006
0.22305989 0.12120484 0.79000002
0.22447169 0.12105142 0.78900003
0.22559251 0.12074458 0.78700006
0.22670473 0.12043773 0.78500003
0.2278084 0.12013088 0.78300005
0.22919655 0.11997746 0.78200006
0.23087566 0.11997746 0.78200006
0.23255475 0.11997746 0.78200006
0.23393431 0.11982403 0.78100002
0.23530957 0.11967061 0.78000003
0.23698436 0.11967061 0.78000003
0.23927113 0.11997746 0.78200006
0.24125834 0.12013088 0.78300005
0.24262933 0.11997746 0.78200006
0.24430841 0.11997746 0.78200006
0.24567294 0.11982403 0.78100002
0.24671647 0.11951718 0.77900004
0.24743256 0.11905691 0.77600002
0.24845676 0.11875007 0.77400005
0.24947236 0.11844321 0.77200001
0.2504794 0.11813637 0.77000004
0.25147784 0.11782952 0.76800001
0.25279731 0.11767609 0.76700002
0.25344896 0.11721583 0.76400006
0.25408775 0.11675555 0.76100004
0.2543776 0.11614186 0.75700003
0.25498846 0.11568158 0.75400001
0.25626713 0.11552816 0.75300002
0.25754148 0.11537474 0.75200003
0.25881156 0.11522131 0.75100005
0.26077083 0.11537474 0.75200003
0.26238555 0.11537474 0.75200003
0.26400021 0.11537474 0.75200003
0.26596811 0.11552816 0.75300002
0.26758492 0.11552816 0.75300002
0.26955923 0.11568158 0.75400001
0.27189755 0.11598843 0.75600004
0.274968 0.11660213 0.76000005
0.27732778 0.11690897 0.76200002
0.27969611 0.11721583 0.76400006
0.28170481 0.11736925 0.76500005
0.2833474 0.11736925 0.76500005
0.28461742 0.11721583 0.76400006
0.28588319 0.1170624 0.76300001
0.28752148 0.1170624 0.76300001
0.28878084 0.11690897 0.76200002
0.29003584 0.11675555 0.76100004
0.29090333 0.11644871 0.75900006
0.29176217 0.11614186 0.75700003
0.29300004 0.11598843 0.75600004
0.29462332 0.11598843 0.75600004
0.29585472 0.11583501 0.75500005
0.29786986 0.11598843 0.75600004
0.2994931 0.11598843 0.75600004
0.30111638 0.11598843 0.75600004
0.30273965 0.11598843 0.75600004
0.30516812 0.11629528 0.75800002
0.30841464 0.11690897 0.76200002
0.31208524 0.11767609 0.76700002
0.31250504 0.11721583 0.76400006
0.31085598 0.11598843 0.75600004
0.31041262 0.11522131 0.75100005
0.30994773 0.11445419 0.74600005
0.31071427 0.11414734 0.74400002
0.31063268 0.11353365 0.74000001
0.31137776 0.1132268 0.73800004
0.31253833 0.11307338 0.73700005
0.31369457 0.11291996 0.73600006
0.31527489 0.11291996 0.73600006
0.31728572 0.11307338 0.73700005
nan nan nan
nan nan nan
nan nan nan
0.34161866 0.11936376 0.77800006
0.34328917 0.11936376 0.77800006
0.34451628 0.11921033 0.77700001
0.3457391 0.11905691 0.77600002
0.34785298 0.11921033 0.77700001
0.3490715 0.11905691 0.77600002
0.35073772 0.11905691 0.77600002
0.35285807 0.11921033 0.77700001
0.35498273 0.11936376 0.77800006
0.35711163 0.11951718 0.77900004
0.35878429 0.11951718 0.77900004
0.36045694 0.11951718 0.77900004
0.3621296 0.11951718 0.77900004
0.36380225 0.11951718 0.77900004
0.36594406 0.11967061 0.78000003
0.36761889 0.11967061 0.78000003
0.36929366 0.11967061 0.78000003
0.37096849 0.11967061 0.78000003
0.37312102 0.11982403 0.78100002
0.37527788 0.11997746 0.78200006
0.37743902 0.12013088 0.78300005
0.37912026 0.12013088 0.78300005
0.38128784 0.1202843 0.78400004
0.38345969 0.12043773 0.78500003
0.38563585 0.12059114 0.78600001
0.38781634 0.12074458 0.78700006
0.39000109 0.120898 0.78800005
0.39219013 0.12105142 0.78900003
0.39388424 0.12105142 0.78900003
0.39557838 0.12105142 0.78900003
0.39676902 0.120898 0.78800005
0.39846098 0.120898 0.78800005
0.40015298 0.120898 0.78800005
0.40133497 0.12074458 0.78700006
0.40302482 0.12074458 0.78700006
0.40522891 0.120898 0.78800005
nan nan nan
nan nan nan
nan nan nan
nan nan nan
nan nan nan
nan nan nan
nan nan nan
nan nan nan
nan nan nan
nan nan nan
nan nan nan
nan nan nan
nan nan nan
nan nan nan
nan nan nan
nan nan nan
nan nan nan
nan nan nan
nan nan nan
nan nan nan
nan nan nan
nan nan nan
nan nan nan
nan nan nan
nan nan nan
nan nan nan
nan nan nan
nan nan nan
nan nan nan
nan nan nan
nan nan nan
nan nan nan
nan nan nan
nan nan nan
nan nan nan
nan nan nan
nan nan nan
nan nan nan
nan nan nan
nan nan nan
nan nan nan
nan nan nan
nan nan nan
nan nan nan
nan nan nan
nan nan nan
nan nan nan
nan nan nan
-0.33347118 0.1261681 0.81100005
-0.33295691 0.12663481 0.81400001
-0.33161601 0.12679039 0.81500006
-0.33067554 0.12710153 0.81700003
-0.33012912 0.12756824 0.82000005
-0.3291693 0.12787938 0.82200003
-0.32780263 0.12803495 0.82300001
-0.32603547 0.12803495 0.82300001
-0.32426834 0.12803495 0.82300001
-0.32328495 0.1283461 0.82500005
-0.32190323 0.12850167 0.82600003
-0.31974211 0.1283461 0.82500005
-0.31797066 0.1283461 0.82500005
-0.31504944 0.12787938 0.82200003
-0.31175995 0.12725709 0.81800002
-0.30886665 0.12679039 0.81500006
-0.30598617 0.12632367 0.81200004
-0.30461735 0.12647924 0.81300002
-0.30361676 0.12679039 0.81500006
-0.30297798 0.12725709 0.81800002
-0.30232632 0.12772381 0.82100004
-0.30092958 0.12787938 0.82200003
-0.29916459 0.12787938 0.82200003
-0.29739961 0.12787938 0.82200003
-0.29563463 0.12787938 0.82200003
-0.29422712 0.12803495 0.82300001
-0.29281539 0.12819052 0.82400006
-0.29139933 0.1283461 0.82500005
-0.29138321 0.12912394 0.83000004
-0.29134563 0.1299018 0.83500004
-0.29163334 0.13083522 0.84100002
-0.29086146 0.13130194 0.84400004
-0.2893917 0.13145751 0.84500003
-0.28791764 0.13161308 0.84600002
-0.28643933 0.13176866 0.84700006
-0.28562877 0.13223536 0.85000002
-0.2851392 0.13285765 0.85400003
-0.28363726 0.13301322 0.85500002
-0.2818014 0.13301322 0.85500002
-0.28062046 0.13332437 0.85700005
-0.27910563 0.13347994 0.85800004
-0.2769402 0.13332437 0.85700005
-0.27542105 0.13347994 0.85800004
-0.2742165 0.13379107 0.86000001
-0.27268663 0.13394666 0.86100006
-0.27115247 0.13410223 0.86200005
-0.26930159 0.13410223 0.86200005
-0.26745075 0.13410223 0.86200005
-0.26590797 0.13425779 0.86300004
-0.26405495 0.13425779 0.86300004
-0.2618981 0.13410223 0.86200005
-0.26034892 0.13425779 0.86300004
-0.25849593 0.13425779 0.86300004
-0.25694028 0.13441336 0.86400002
-0.25508511 0.13441336 0.86400002
-0.25264376 0.13410223 0.86200005
-0.25079289 0.13410223 0.86200005
-0.24923082 0.13425779 0.86300004
-0.24709116 0.13410223 0.86200005
-0.24467129 0.13379107 0.86000001
-0.24254234 0.13363551 0.85900003
-0.24069794 0.13363551 0.85900003
-0.23857543 0.13347994 0.85800004
-0.23673315 0.13347994 0.85800004
-0.23489086 0.13347994 0.85800004
-0.23332021 0.13363551 0.85900003
-0.23201472 0.13394666 0.86100006
-0.23043333 0.13410223 0.86200005
-0.22884764 0.13425779 0.86300004
-0.2269946 0.13425779 0.86300004
-0.22540249 0.13441336 0.86400002
-0.22354731 0.13441336 0.86400002
-0.22143556 0.13425779 0.86300004
-0.21932809 0.13410223 0.86200005
-0.21722494 0.13394666 0.86100006
-0.21512608 0.13379107 0.86000001
-0.21303149 0.13363551 0.85900003
-0.21044952 0.1331688 0.85600007
-0.20836781 0.13301322 0.85500002
-0.20653199 0.13301322 0.85500002
-0.20469613 0.13301322 0.85500002
-0.2028603 0.13301322 0.85500002
-0.20102446 0.13301322 0.85500002
-0.19895566 0.13285765 0.85400003
-0.19712195 0.13285765 0.85400003
-0.19551693 0.13301322 0.85500002
-0.19345456 0.13285765 0.85400003
-0.19184527 0.13301322 0.85500002
-0.18978719 0.13285765 0.85400003
-0.1879535 0.13285765 0.85400003
-0.18655568 0.1331688 0.85600007
-0.18514928 0.13347994 0.85800004
-0.18352063 0.13363551 0.85900003
-0.18167621 0.13363551 0.85900003
-0.17983177 0.13363551 0.85900003
-0.17819455 0.13379107 0.86000001
-0.17655304 0.13394666 0.86100006
-0.1742985 0.13363551 0.85900003
-0.17225331 0.13347994 0.85800004
-0.17021242 0.13332437 0.85700005
-0.16837227 0.13332437 0.85700005
-0.16653214 0.13332437 0.85700005
-0.164692 0.13332437 0.85700005
-0.1630419 0.13347994 0.85800004
-0.1613875 0.13363551 0.85900003
-0.1597288 0.13379107 0.86000001
-0.15769865 0.13363551 0.85900003
-0.15585421 0.13363551 0.85900003
-0.15400977 0.13363551 0.85900003
-0.15216535 0.13363551 0.85900003
-0.15032092 0.13363551 0.85900003
-0.14830366 0.13347994 0.85800004
-0.14663208 0.13363551 0.85900003
-0.14495619 0.13379107 0.86000001
-0.14327604 0.13394666 0.86100006
-0.14126304 0.13379107 0.86000001
-0.13941646 0.13379107 0.86000001
-0.13740993 0.13363551 0.85900003
-0.13556549 0.13363551 0.85900003
-0.13356541 0.13347994 0.85800004
-0.13172312 0.13347994 0.85800004
-0.12972946 0.13332437 0.85700005
-0.1277401 0.1331688 0.85600007
-0.12604919 0.13332437 0.85700005
-0.12420905 0.13332437 0.85700005
-0.12265449 0.13363551 0.85900003
-0.12081006 0.13363551 0.85900003
-0.11910412 0.13379107 0.86000001
-0.11739391 0.13394666 0.86100006
-0.11567938 0.13410223 0.86200005
-0.11382851 0.13410223 0.86200005
-0.11210755 0.13425779 0.86300004
-0.11038228 0.13441336 0.86400002
-0.10877834 0.13472451 0.86600006
-0.10691889 0.13472451 0.86600006
-0.10493811 0.13456894 0.86500007
-0.10308079 0.13456894 0.86500007
-0.10122348 0.13456894 0.86500007
-0.0992513 0.13441336 0.86400002
-0.097396135 0.13441336 0.86400002
-0.095540963 0.13441336 0.86400002
-0.09357737 0.13425779 0.86300004
-0.091830641 0.13441336 0.86400002
-0.089975476 0.13441336 0.86400002
-0.088120311 0.13441336 0.86400002
-0.086265139 0.13441336 0.86400002
-0.08431229 0.13425779 0.86300004
-0.082554817 0.13441336 0.86400002
-0.080606252 0.13425779 0.86300004
-0.078753233 0.13425779 0.86300004
-0.076900221 0.13425779 0.86300004
-0.075134158 0.13441336 0.86400002
-0.073278993 0.13441336 0.86400002
-0.071423829 0.13441336 0.86400002
-0.069729708 0.13472451 0.86600006
-0.067948617 0.13488008 0.86700004
-0.066163234 0.13503565 0.86800003
-0.064299479 0.13503565 0.86800003
-0.062435731 0.13503565 0.86800003
-0.060571976 0.13503565 0.86800003
-0.058708224 0.13503565 0.86800003
-0.056844469 0.13503565 0.86800003
-0.054980721 0.13503565 0.86800003
-0.053116966 0.13503565 0.86800003
-0.051312257 0.13519122 0.86900002
-0.049446359 0.13519122 0.86900002
-0.047580458 0.13519122 0.86900002
-0.045767166 0.13534679 0.87000006
-0.043949574 0.13550237 0.87100005
-0.042079382 0.13550237 0.87100005
-0.040163022 0.13534679 0.87000006
-0.038294975 0.13534679 0.87000006
-0.036468796 0.13550237 0.87100005
-0.034638327 0.13565794 0.87200004
-0.032765981 0.13565794 0.87200004
-0.030858213 0.13550237 0.87100005
-0.028988017 0.13550237 0.87100005
-0.027148958 0.13565794 0.87200004
-0.025276616 0.13565794 0.87200004
-0.023457954 0.13596907 0.87400001
-0.021606011 0.13612464 0.87500006
-0.019727226 0.13612464 0.87500006
-0.017868841 0.13628021 0.87600005
-0.016006162 0.13643578 0.87700003
-0.014123084 0.13643578 0.87700003
-0.012226049 0.13628021 0.87600005
-0.010356928 0.13643578 0.87700003
-0.0084835123 0.13659136 0.87800002
-0.0065982873 0.13659136 0.87800002
-0.0047130622 0.13659136 0.87800002
-0.0028342791 0.1369025 0.88000005
-0.00094583328 0.13705806 0.88100004
0.00094583328 0.13705806 0.88100004
0.0028374998 0.13705806 0.88100004
0.0047291662 0.13705806 0.88100004
0.0066208327 0.13705806 0.88100004
0.0085124997 0.13705806 0.88100004
0.010404166 0.13705806 0.88100004
0.012309789 0.13721363 0.88200003
0.014219707 0.1373692 0.88300002
0.016152171 0.13768035 0.88500005
0.018072823 0.13783592 0.88600004
0.019975226 0.13783592 0.88600004
0.021877628 0.13783592 0.88600004
0.02380687 0.13799149 0.88700002
0.025769394 0.13830264 0.88900006
0.027678238 0.13830264 0.88900006
0.029620362 0.13845821 0.89000005
0.031531356 0.13845821 0.89000005
0.033479918 0.13861378 0.89100003
0.035393059 0.13861378 0.89100003
0.037306197 0.13861378 0.89100003
0.039263353 0.13876934 0.89200002
0.041178636 0.13876934 0.89200002
0.043093923 0.13876934 0.89200002
0.04505967 0.13892493 0.89300007
0.046977103 0.13892493 0.89300007
0.049004041 0.13923606 0.89500004
0.050925769 0.13923606 0.89500004
0.052906539 0.13939163 0.89600003
0.054830417 0.13939163 0.89600003
0.056817632 0.1395472 0.89700001
0.058809143 0.13970278 0.89800006
0.060737312 0.13970278 0.89800006
0.062595695 0.1395472 0.89700001
0.06459365 0.13970278 0.89800006
0.066521816 0.13970278 0.89800006
0.068373755 0.1395472 0.89700001
0.070378155 0.13970278 0.89800006
0.072306328 0.13970278 0.89800006
0.074317157 0.13985835 0.89900005
0.076247476 0.13985835 0.89900005
0.078264751 0.14001392 0.90000004
0.080375433 0.14032507 0.90200007
0.082403436 0.14048064 0.90300006
0.084622547 0.14094734 0.90600002
0.086567894 0.14094734 0.90600002
0.088610947 0.14110292 0.90700006
0.090658277 0.14125849 0.90800005
0.092709906 0.14141406 0.90900004
0.094557561 0.14125849 0.90800005
0.096400917 0.14110292 0.90700006
0.098348409 0.14110292 0.90700006
0.10040648 0.14125849 0.90800005
0.10246885 0.14141406 0.90900004
0.10453551 0.14156963 0.91000003
0.10648944 0.14156963 0.91000003
0.10844338 0.14156963 0.91000003
0.11039732 0.14156963 0.91000003
0.11235125 0.14156963 0.91000003
0.11430518 0.14156963 0.91000003
0.11625911 0.14156963 0.91000003
0.11821305 0.14156963 0.91000003
0.12016699 0.14156963 0.91000003
0.12225513 0.1417252 0.91100007
0.12434756 0.14188078 0.91200006
0.12644427 0.14203635 0.91300005
0.12840465 0.14203635 0.91300005
0.13050781 0.14219192 0.91400003
0.13247034 0.14219192 0.91400003
0.13457994 0.14234748 0.91500002
0.13639538 0.14219192 0.91400003
0.13850929 0.14234748 0.91500002
0.14062749 0.14250305 0.91600007
0.14274998 0.14265862 0.91700006
0.14471893 0.14265862 0.91700006
0.14684786 0.1428142 0.91800004
0.14898108 0.14296977 0.91900003
0.15144712 0.14343648 0.92200005
nan nan nan
nan nan nan
0.16216585 0.14779247 0.95000005
0.16506992 0.14857033 0.95500004
0.16782045 0.14919262 0.95900005
0.17005673 0.14934818 0.96000004
0.17175946 0.14903705 0.95800006
0.17345358 0.1487259 0.95600003
0.1753227 0.14857033 0.95500004
0.1770018 0.14825919 0.95300007
0.17867231 0.14794804 0.95100003
0.18052426 0.14779247 0.95000005
0.1823719 0.14763691 0.94900006
0.18440957 0.14763691 0.94900006
0.18625079 0.14748134 0.94800007
0.18788908 0.14717019 0.94600004
0.18971956 0.14701462 0.94500005
0.19154574 0.14685905 0.94400007
0.19316256 0.1465479 0.94200003
0.1941492 0.14577004 0.93700004
0.19406758 0.14421433 0.92700005
0.19330856 0.14219192 0.91400003
0.19270736 0.14032507 0.90200007
0.192702 0.13892493 0.89300007
0.19374767 0.13830264 0.88900006
0.19455609 0.13752478 0.88400006
0.19556525 0.1369025 0.88000005
0.19655725 0.13628021 0.87600005
0.19775859 0.1358135 0.87300003
0.1994044 0.13565794 0.87200004
nan nan nan
nan nan nan
nan nan nan
0.20001315 0.13114637 0.84300005
0.20110498 0.13067965 0.84000003
0.20218393 0.13021295 0.83700001
0.20325001 0.12974623 0.83400005
0.20430321 0.12927952 0.83100003
0.20559151 0.12896837 0.82900006
0.20687124 0.12865724 0.82700002
0.20789008 0.12819052 0.82400006
0.20915045 0.12787938 0.82200003
0.2098891 0.12725709 0.81800002
0.21035181 0.12647924 0.81300002
0.21105394 0.12585695 0.80900002
0.21226496 0.12554581 0.80700004
0.21373257 0.12539025 0.80600005
0.21492852 0.1250791 0.80400002
0.21611591 0.12476796 0.80200005
0.21729472 0.12445682 0.80000001
0.21819116 0.1239901 0.79700005
0.21907474 0.12352339 0.79400003
0.2199454 0.12305667 0.79100001
0.22108343 0.12274554 0.78900003
0.22221285 0.1224344 0.78700006
0.22390269 0.1224344 0.78700006
0.2250192 0.12212325 0.78500003
0.22612715 0.12181211 0.78300005
0.22751747 0.12165654 0.78200006
0.22861037 0.12134539 0.78000003
0.22998995 0.12118983 0.77900004
0.23166259 0.12118983 0.77900004
0.23303573 0.12103426 0.77800006
0.23440453 0.12087868 0.77700001
0.23607288 0.12087868 0.77700001
0.23774125 0.12087868 0.77700001
0.23971774 0.12103426 0.77800006
0.24169852 0.12118983 0.77900004
0.24305876 0.12103426 0.77800006
0.2444147 0.12087868 0.77700001
0.24576634 0.12072311 0.77600002
0.24679486 0.12041197 0.77400005
0.24813578 0.1202564 0.77300006
0.24947236 0.12010083 0.77200001
0.2504794 0.11978969 0.77000004
0.25147784 0.11947854 0.76800001
0.25279731 0.11932297 0.76700002
0.25344896 0.11885627 0.76400006
0.25375387 0.11823398 0.76000005
0.25404158 0.11761169 0.75600004
0.25465029 0.11714498 0.75300002
0.25592682 0.1169894 0.75200003
0.25719902 0.11683384 0.75100005
0.25846693 0.11667827 0.75000006
0.2600773 0.11667827 0.75000006
0.2616877 0.11667827 0.75000006
0.26329809 0.11667827 0.75000006
0.2656149 0.1169894 0.75200003
0.26687422 0.11683384 0.75100005
0.26848674 0.11683384 0.75100005
0.27045894 0.1169894 0.75200003
0.2727972 0.11730055 0.75400001
0.27550802 0.11776726 0.75700003
0.27823171 0.11823398 0.76000005
0.28096831 0.11870068 0.76300001
0.2826066 0.11870068 0.76300001
0.28387237 0.11854511 0.76200002
0.28550851 0.11854511 0.76200002
0.28676784 0.11838955 0.76100004
0.28802288 0.11823398 0.76000005
0.28851134 0.11776726 0.75700003
0.2897535 0.11761169 0.75600004
0.29099137 0.11745612 0.75500005
0.29222491 0.11730055 0.75400001
0.29345417 0.11714498 0.75300002
0.29507098 0.11714498 0.75300002
0.29668781 0.11714498 0.75300002
0.29830465 0.11714498 0.75300002
0.29992148 0.11714498 0.75300002
0.30153829 0.11714498 0.75300002
0.30275252 0.1169894 0.75200003
0.30436721 0.1169894 0.75200003
0.30598187 0.1169894 0.75200003
0.30677852 0.11667827 0.75000006
0.30756649 0.11636712 0.74800003
0.30875927 0.11621156 0.74700004
0.30911675 0.11574484 0.74400002
0.30946141 0.11527813 0.74100006
0.30979314 0.11481141 0.73800004
0.31095585 0.11465584 0.73700005
0.31253833 0.11465584 0.73700005
0.31369457 0.11450028 0.73600006
0.31527489 0.11450028 0.73600006
0.31685522 0.11450028 0.73600006
0.31930086 0.11481141 0.73800004
nan nan nan
nan nan nan
nan nan nan
nan nan nan
0.34229931 0.12010083 0.77200001
0.34395692 0.12010083 0.77200001
0.34606227 0.1202564 0.77300006
0.34772202 0.1202564 0.77300006
0.3493818 0.1202564 0.77300006
0.35194981 0.12056754 0.77500004
0.35407016 0.12072311 0.77600002
0.35619479 0.12087868 0.77700001
0.35832372 0.12103426 0.77800006
0.36045694 0.12118983 0.77900004
0.36166474 0.12103426 0.77800006
0.36333525 0.12103426 0.77800006
0.36453658 0.12087868 0.77700001
0.36620495 0.12087868 0.77700001
0.36787331 0.12087868 0.77700001
0.36954167 0.12087868 0.77700001
0.37121001 0.12087868 0.77700001
0.37383819 0.12118983 0.77900004
0.37599289 0.12134539 0.78000003
0.37766767 0.12134539 0.78000003
0.37982881 0.12150096 0.78100002
0.38199425 0.12165654 0.78200006
0.38416401 0.12181211 0.78300005
0.386338 0.12196768 0.78400004
0.3890112 0.12227882 0.78600001
0.39119601 0.1224344 0.78700006
0.39288583 0.1224344 0.78700006
0.39457566 0.1224344 0.78700006
0.39576197 0.12227882 0.78600001
0.39795533 0.1224344 0.78700006
0.39913735 0.12227882 0.78600001
0.40082499 0.12227882 0.78600001
0.4025127 0.12227882 0.78600001
0.4042004 0.12227882 0.78600001
nan nan nan
nan nan nan
nan nan nan
nan nan nan
nan nan nan
nan nan nan
nan nan nan
nan nan nan
nan nan nan
nan nan nan
nan nan nan
nan nan nan
nan nan nan
nan nan nan
nan nan nan
nan nan nan
nan nan nan
nan nan nan
nan nan nan
nan nan nan
nan nan nan
nan nan nan
nan nan nan
nan nan nan
nan nan nan
nan nan nan
nan nan nan
nan nan nan
nan nan nan
nan nan nan
nan nan nan
nan nan nan
nan nan nan
nan nan nan
nan nan nan
nan nan nan
nan nan nan
nan nan nan
nan nan nan
nan nan nan
nan nan nan
nan nan nan
nan nan nan
nan nan nan
nan nan nan
nan nan nan
nan nan nan
nan nan nan
-0.33347118 0.12790947 0.81100005
-0.33213887 0.12806718 0.81200004
-0.33120909 0.12838261 0.81400001
-0.3302708 0.12869805 0.81600004
-0.33012912 0.12932894 0.82000005
-0.3283684 0.12932894 0.82000005
-0.32780263 0.12980208 0.82300001
-0.32682779 0.13011752 0.82500005
-0.32505637 0.13011752 0.82500005
-0.32328495 0.13011752 0.82500005
-0.32151353 0.13011752 0.82500005
-0.31974211 0.13011752 0.82500005
-0.31719983 0.12980208 0.82300001
-0.31428289 0.12932894 0.82000005
-0.31061658 0.12854034 0.81500006
-0.30810869 0.12822489 0.81300002
-0.30485567 0.12759402 0.80900002
-0.30311862 0.12759402 0.80900002
-0.30175409 0.12775175 0.81000006
-0.30075565 0.12806718 0.81200004
-0.30048513 0.12869805 0.81600004
-0.29946518 0.12901349 0.81800002
-0.29770881 0.12901349 0.81800002
-0.29667601 0.12932894 0.82000005
-0.29491532 0.12932894 0.82000005
-0.29351214 0.12948665 0.82100004
-0.29246002 0.12980208 0.82300001
-0.29104611 0.12995981 0.82400006
-0.29032999 0.13043295 0.82700002
-0.29099673 0.13153699 0.83400005
-0.29163334 0.132641 0.84100002
-0.29086146 0.13311416 0.84400004
-0.28904921 0.13311416 0.84400004
-0.28757733 0.13327189 0.84500003
-0.28610113 0.1334296 0.84600002
-0.28495669 0.13374504 0.84800005
-0.28380367 0.13406047 0.85000002
-0.28231028 0.13421819 0.85100001
-0.28081265 0.13437591 0.85200006
-0.27898324 0.13437591 0.85200006
-0.27747914 0.13453363 0.85300004
-0.27564758 0.13453363 0.85300004
-0.27413705 0.13469134 0.85400003
-0.27230337 0.13469134 0.85400003
-0.27078637 0.13484906 0.85500002
-0.26926512 0.13500679 0.85600007
-0.26773953 0.1351645 0.85700005
-0.26589939 0.1351645 0.85700005
-0.26405925 0.1351645 0.85700005
-0.26221913 0.1351645 0.85700005
-0.26037899 0.1351645 0.85700005
-0.25914222 0.13547994 0.85900003
-0.25699827 0.13532221 0.85800004
-0.25545335 0.13547994 0.85900003
-0.25360894 0.13547994 0.85900003
-0.25176448 0.13547994 0.85900003
-0.24992007 0.13547994 0.85900003
-0.24807562 0.13547994 0.85900003
-0.24594456 0.13532221 0.85800004
-0.24381779 0.1351645 0.85700005
-0.24197765 0.1351645 0.85700005
-0.24013752 0.1351645 0.85700005
-0.23801932 0.13500679 0.85600007
-0.23590542 0.13484906 0.85500002
-0.23434334 0.13500679 0.85600007
-0.23277698 0.1351645 0.85700005
-0.23093683 0.1351645 0.85700005
-0.22963135 0.13547994 0.85900003
-0.22778693 0.13547994 0.85900003
-0.22594249 0.13547994 0.85900003
-0.22435895 0.13563766 0.86000001
-0.22225364 0.13547994 0.85900003
-0.22040921 0.13547994 0.85900003
-0.21856476 0.13547994 0.85900003
-0.21621577 0.1351645 0.85700005
-0.21437564 0.1351645 0.85700005
-0.2125355 0.1351645 0.85700005
-0.21020365 0.13484906 0.85500002
-0.2081241 0.13469134 0.85400003
-0.20653199 0.13484906 0.85500002
-0.20469613 0.13484906 0.85500002
-0.20262304 0.13469134 0.85400003
-0.20078935 0.13469134 0.85400003
-0.19872268 0.13453363 0.85300004
-0.19666031 0.13437591 0.85200006
-0.19483091 0.13437591 0.85200006
-0.19300152 0.13437591 0.85200006
-0.1913965 0.13453363 0.85300004
-0.18934274 0.13437591 0.85200006
-0.18751334 0.13437591 0.85200006
-0.18590187 0.13453363 0.85300004
-0.1845019 0.13484906 0.85500002
-0.18287972 0.13500679 0.85600007
-0.18104172 0.13500679 0.85600007
-0.17899437 0.13484906 0.85500002
-0.17736575 0.13500679 0.85600007
-0.17573282 0.1351645 0.85700005
-0.17368978 0.13500679 0.85600007
-0.17165102 0.13484906 0.85500002
-0.16961657 0.13469134 0.85400003
-0.1675864 0.13453363 0.85300004
-0.16556054 0.13437591 0.85200006
-0.16373114 0.13437591 0.85200006
-0.16190176 0.13437591 0.85200006
-0.16026023 0.13453363 0.85300004
-0.15880014 0.13484906 0.85500002
-0.1569643 0.13484906 0.85500002
-0.15512846 0.13484906 0.85500002
-0.15347192 0.13500679 0.85600007
-0.15163393 0.13500679 0.85600007
-0.14997093 0.1351645 0.85700005
-0.14795797 0.13500679 0.85600007
-0.14629067 0.1351645 0.85700005
-0.14445055 0.1351645 0.85700005
-0.1426104 0.1351645 0.85700005
-0.14093453 0.13532221 0.85800004
-0.13893013 0.1351645 0.85700005
-0.13709 0.1351645 0.85700005
-0.13524985 0.1351645 0.85700005
-0.13325407 0.13500679 0.85600007
-0.13126256 0.13484906 0.85500002
-0.12927534 0.13469134 0.85400003
-0.12729241 0.13453363 0.85300004
-0.12546086 0.13453363 0.85300004
-0.12362932 0.13453363 0.85300004
-0.12194055 0.13469134 0.85400003
-0.1202475 0.13484906 0.85500002
-0.11868865 0.1351645 0.85700005
-0.11712121 0.13547994 0.85900003
-0.11527678 0.13547994 0.85900003
-0.1135644 0.13563766 0.86000001
-0.11184774 0.13579537 0.86100006
-0.11012677 0.1359531 0.86200005
-0.10852712 0.13626853 0.86400002
-0.10667195 0.13626853 0.86400002
-0.10481679 0.13626853 0.86400002
-0.10296162 0.13626853 0.86400002
-0.10110646 0.13626853 0.86400002
-0.0992513 0.13626853 0.86400002
-0.097396135 0.13626853 0.86400002
-0.095540963 0.13626853 0.86400002
-0.09357737 0.13611081 0.86300004
-0.091724358 0.13611081 0.86300004
-0.089767203 0.1359531 0.86200005
-0.08791633 0.1359531 0.86200005
-0.086065456 0.1359531 0.86200005
-0.08421459 0.1359531 0.86200005
-0.082363717 0.1359531 0.86200005
-0.080512851 0.1359531 0.86200005
-0.078661978 0.1359531 0.86200005
-0.076900221 0.13611081 0.86300004
-0.075047202 0.13611081 0.86300004
-0.073194183 0.13611081 0.86300004
-0.071423829 0.13626853 0.86400002
-0.06964919 0.13642626 0.86500007
-0.067870252 0.13658397 0.86600006
-0.066087015 0.13674168 0.86700004
-0.064299479 0.1368994 0.86800003
-0.062507659 0.13705711 0.86900002
-0.060641762 0.13705711 0.86900002
-0.058775857 0.13705711 0.86900002
-0.056844469 0.1368994 0.86800003
-0.054980721 0.1368994 0.86800003
-0.053116966 0.1368994 0.86800003
-0.051312257 0.13705711 0.86900002
-0.049389459 0.1368994 0.86800003
-0.047525704 0.1368994 0.86800003
-0.045714557 0.13705711 0.86900002
-0.043899119 0.13721484 0.87000006
-0.042031072 0.13721484 0.87000006
-0.040116854 0.13705711 0.86900002
-0.038250957 0.13705711 0.86900002
-0.036426928 0.13721484 0.87000006
-0.034598604 0.13737255 0.87100005
-0.032728408 0.13737255 0.87100005
-0.030858213 0.13737255 0.87100005
-0.028988017 0.13737255 0.87100005
-0.027148958 0.13753027 0.87200004
-0.025305603 0.137688 0.87300003
-0.023457954 0.13784571 0.87400001
-0.021606011 0.13800344 0.87500006
-0.019727226 0.13800344 0.87500006
-0.017889239 0.13831887 0.87700003
-0.016006162 0.13831887 0.87700003
-0.014139188 0.13847658 0.87800002
-0.012253962 0.13847658 0.87800002
-0.010368737 0.13847658 0.87800002
-0.0084835123 0.13847658 0.87800002
-0.0065982873 0.13847658 0.87800002
-0.0047237985 0.13879202 0.88000005
-0.0028374998 0.13894974 0.88100004
-0.00094690686 0.13910745 0.88200003
0.00094690686 0.13910745 0.88200003
0.0028407206 0.13910745 0.88200003
0.0047345343 0.13910745 0.88200003
0.0066358629 0.13926516 0.88300002
0.0085318238 0.13926516 0.88300002
0.010427784 0.13926516 0.88300002
0.012323746 0.13926516 0.88300002
0.014219707 0.13926516 0.88300002
0.016170422 0.13973832 0.88600004
0.018072823 0.13973832 0.88600004
0.019975226 0.13973832 0.88600004
0.021902321 0.13989605 0.88700002
0.023860551 0.14021149 0.88900006
0.025798382 0.14036921 0.89000005
0.027709372 0.14036921 0.89000005
0.029686924 0.14068463 0.89200002
0.031602211 0.14068463 0.89200002
0.033555072 0.14084236 0.89300007
0.035472505 0.14084236 0.89300007
0.037389938 0.14084236 0.89300007
0.039307371 0.14084236 0.89300007
0.041224804 0.14084236 0.89300007
0.043142237 0.14084236 0.89300007
0.04505967 0.14084236 0.89300007
0.046977103 0.14084236 0.89300007
0.049058791 0.1413155 0.89600003
0.050982665 0.1413155 0.89600003
0.052906539 0.1413155 0.89600003
0.054830417 0.1413155 0.89600003
0.056817632 0.14147322 0.89700001
0.058809143 0.14163095 0.89800006
0.060737312 0.14163095 0.89800006
0.062665485 0.14163095 0.89800006
0.064665578 0.14178866 0.89900005
0.06659589 0.14178866 0.89900005
0.068526208 0.14178866 0.89900005
0.070456527 0.14178866 0.89900005
0.072467364 0.14194638 0.90000004
0.074482486 0.1421041 0.90100002
0.076417096 0.1421041 0.90100002
0.078438677 0.14226182 0.90200007
0.080464542 0.14241955 0.90300006
0.0826772 0.14289269 0.90600002
0.084809355 0.14320813 0.90800005
0.086759001 0.14320813 0.90800005
0.088708639 0.14320813 0.90800005
0.090758123 0.14336585 0.90900004
0.092709906 0.14336585 0.90900004
0.094661698 0.14336585 0.90900004
0.096613489 0.14336585 0.90900004
0.098565273 0.14336585 0.90900004
0.10062764 0.14352356 0.91000003
0.10258158 0.14352356 0.91000003
0.10453551 0.14352356 0.91000003
0.10660647 0.14368129 0.91100007
0.10856255 0.14368129 0.91100007
0.11051863 0.14368129 0.91100007
0.11247472 0.14368129 0.91100007
0.11443079 0.14368129 0.91100007
0.11638688 0.14368129 0.91100007
0.11821305 0.14352356 0.91000003
0.12016699 0.14352356 0.91000003
0.12225513 0.14368129 0.91100007
0.12434756 0.143839 0.91200006
0.12644427 0.14399672 0.91300005
0.12854528 0.14415444 0.91400003
0.13050781 0.14415444 0.91400003
0.13276021 0.14446987 0.91600007
0.13457994 0.14431216 0.91500002
0.13669385 0.14446987 0.91600007
0.13866067 0.14446987 0.91600007
0.140781 0.1446276 0.91700006
0.14290564 0.14478531 0.91800004
0.14471893 0.1446276 0.91700006
0.14684786 0.14478531 0.91800004
0.14898108 0.14494303 0.91900003
0.15144712 0.14541619 0.92200005
0.15559012 0.14746653 0.93500006
0.15962037 0.14935914 0.94700003
0.16267796 0.15030545 0.95300007
0.16558847 0.15109405 0.95800006
0.16817044 0.15156719 0.96100003
0.17023388 0.15156719 0.96100003
0.17175946 0.15109405 0.95800006
0.17327215 0.15062088 0.95500004
0.17513913 0.15046316 0.95400006
0.17681606 0.15014772 0.95200002
0.17829655 0.14967458 0.94900006
0.18033424 0.14967458 0.94900006
0.18217972 0.14951687 0.94800007
0.18402092 0.14935914 0.94700003
0.18566138 0.14904371 0.94500005
0.18749185 0.148886 0.94400007
0.18931803 0.14872827 0.94300002
0.19093701 0.14841282 0.94100004
0.19234234 0.14793967 0.93800002
0.19373479 0.14746653 0.93500006
0.19406758 0.14620477 0.92700005
0.19478905 0.14525847 0.92100006
0.1948438 0.143839 0.91200006
0.19399674 0.14178866 0.89900005
0.19374767 0.14021149 0.88900006
0.19433598 0.13926516 0.88300002
0.19534303 0.13863431 0.87900007
0.19633289 0.13800344 0.87500006
0.19753206 0.13753027 0.87200004
0.19894706 0.13721484 0.87000006
0.20035346 0.1368994 0.86800003
nan nan nan
nan nan nan
0.20001315 0.13295645 0.84300005
0.20086558 0.13232557 0.83900005
0.20170082 0.1316947 0.83500004
0.20276259 0.13122155 0.83200002
0.2038115 0.13074839 0.82900006
0.20509551 0.13043295 0.82700002
0.20637095 0.13011752 0.82500005
0.20713319 0.12948665 0.82100004
0.20813268 0.12901349 0.81800002
0.20860615 0.12822489 0.81300002
0.20957561 0.12775175 0.81000006
0.21079306 0.12743631 0.80800003
0.2117389 0.12696315 0.80500007
0.21320221 0.12680544 0.80400002
0.21439388 0.12649 0.80200005
0.21557696 0.12617455 0.80000001
0.21620826 0.1255437 0.79600006
0.21682234 0.12491282 0.79200006
0.21797109 0.12459738 0.79000002
0.21911123 0.12428194 0.78800005
0.22052303 0.12412423 0.78700006
0.22193047 0.12396651 0.78600001
0.22333369 0.12380879 0.78500003
0.22444591 0.12349336 0.78300005
0.22583836 0.12333564 0.78200006
0.22693557 0.12302019 0.78000003
0.22831728 0.12286248 0.77900004
0.22939946 0.12254704 0.77700001
0.23077042 0.12238932 0.77600002
0.23213713 0.12223161 0.77500004
0.23380117 0.12223161 0.77500004
0.23516141 0.12207389 0.77400005
0.23651737 0.12191617 0.77300006
0.23817714 0.12191617 0.77300006
0.23983692 0.12191617 0.77300006
0.24149668 0.12191617 0.77300006
0.24284188 0.12175845 0.77200001
0.2444995 0.12175845 0.77200001
0.24615714 0.12175845 0.77200001
0.24781474 0.12175845 0.77200001
0.24914922 0.12160073 0.77100003
0.2504794 0.12144302 0.77000004
0.25147784 0.12112758 0.76800001
0.25279731 0.12096986 0.76700002
0.25344896 0.12049671 0.76400006
0.25408775 0.12002356 0.76100004
0.25404158 0.11923496 0.75600004
0.25465029 0.11876181 0.75300002
0.25592682 0.11860409 0.75200003
0.25685653 0.11828866 0.75000006
0.25777769 0.11797322 0.74800003
0.25938377 0.11797322 0.74800003
0.26064095 0.1178155 0.74700004
0.26189384 0.11765778 0.74600005
0.26384884 0.1178155 0.74700004
0.26509741 0.11765778 0.74600005
0.2670567 0.1178155 0.74700004
0.26866066 0.1178155 0.74700004
0.27135 0.11828866 0.75000006
0.27368829 0.11860409 0.75200003
0.27676734 0.11923496 0.75600004
0.27912709 0.11955039 0.75800002
0.28112507 0.11970812 0.75900006
0.28275475 0.11970812 0.75900006
0.28438449 0.11970812 0.75900006
0.28563735 0.11955039 0.75800002
0.28688595 0.11939268 0.75700003
0.28774911 0.11907725 0.75500005
0.28860369 0.11876181 0.75300002
0.2902205 0.11876181 0.75300002
0.29183733 0.11876181 0.75300002
0.29306445 0.11860409 0.75200003
0.29467914 0.11860409 0.75200003
0.29629382 0.11860409 0.75200003
0.29790848 0.11860409 0.75200003
0.29952317 0.11860409 0.75200003
0.30073741 0.11844637 0.75100005
0.30194736 0.11828866 0.75000006
0.30315298 0.11813093 0.74900001
0.30435431 0.11797322 0.74800003
0.30555138 0.1178155 0.74700004
0.30633295 0.11750007 0.74500006
0.30751926 0.11734234 0.74400002
0.3082858 0.11702691 0.74200004
0.30862615 0.11655375 0.73900002
0.30937338 0.11623832 0.73700005
0.31053394 0.1160806 0.73600006
0.31211424 0.1160806 0.73600006
0.31326833 0.11592288 0.73500001
0.31527489 0.1160806 0.73600006
0.31685522 0.1160806 0.73600006
0.31886822 0.11623832 0.73700005
nan nan nan
nan nan nan
nan nan nan
nan nan nan
nan nan nan
0.34217477 0.12112758 0.76800001
0.3447192 0.12144302 0.77000004
0.34682235 0.12160073 0.77100003
0.34847784 0.12160073 0.77100003
0.35104156 0.12191617 0.77300006
0.35315761 0.12207389 0.77400005
0.35573637 0.12238932 0.77600002
0.35786313 0.12254704 0.77700001
0.35953149 0.12254704 0.77700001
0.360735 0.12238932 0.77600002
0.36240122 0.12238932 0.77600002
0.36312911 0.12207389 0.77400005
0.36431974 0.12191617 0.77300006
0.36597952 0.12191617 0.77300006
0.3676393 0.12191617 0.77300006
0.36929905 0.12191617 0.77300006
0.37191859 0.12223161 0.77500004
0.37406471 0.12238932 0.77600002
0.3762151 0.12254704 0.77700001
0.37885615 0.12286248 0.77900004
0.38101727 0.12302019 0.78000003
0.3826921 0.12302019 0.78000003
0.38535246 0.12333564 0.78200006
0.38802138 0.12365107 0.78400004
0.39020184 0.12380879 0.78500003
0.39238659 0.12396651 0.78600001
0.39407426 0.12396651 0.78600001
0.39576197 0.12396651 0.78600001
0.39744964 0.12396651 0.78600001
0.39862955 0.12380879 0.78500003
0.3998051 0.12365107 0.78400004
0.40148851 0.12365107 0.78400004
0.4031719 0.12365107 0.78400004
nan nan nan
nan nan nan
nan nan nan
nan nan nan
nan nan nan
nan nan nan
nan nan nan
nan nan nan
nan nan nan
nan nan nan
nan nan nan
nan nan nan
nan nan nan
nan nan nan
nan nan nan
nan nan nan
nan nan nan
nan nan nan
nan nan nan
nan nan nan
nan nan nan
nan nan nan
nan nan nan
nan nan nan
nan nan nan
nan nan nan
nan nan nan
nan nan nan
nan nan nan
nan nan nan
nan nan nan
nan nan nan
nan nan nan
nan nan nan
nan nan nan
nan nan nan
nan nan nan
nan nan nan
nan nan nan
nan nan nan
nan nan nan
nan nan nan
nan nan nan
nan nan nan
nan nan nan
nan nan nan
nan nan nan
-0.33521256 0.12965083 0.81100005
-0.33306 0.12949097 0.81000006
-0.33172983 0.12965083 0.81100005
-0.3308022 0.12997055 0.81300002
-0.32986608 0.1302903 0.81500006
-0.32932389 0.13076988 0.81800002
-0.3283684 0.13108961 0.82000005
-0.32859924 0.13188894 0.82500005
-0.32722396 0.13204882 0.82600003
-0.32545039 0.13204882 0.82600003
nan nan nan
-0.32190323 0.13204882 0.82600003
-0.31974211 0.13188894 0.82500005
-0.31719983 0.13156921 0.82300001
-0.31351635 0.13076988 0.81800002
-0.30985433 0.12997055 0.81300002
-0.30735072 0.12965083 0.81100005
-0.30485567 0.1293311 0.80900002
-0.30311862 0.1293311 0.80900002
-0.30138153 0.1293311 0.80900002
-0.29964447 0.1293311 0.80900002
-0.29938039 0.12997055 0.81300002
-0.2983669 0.1302903 0.81500006
-0.29698092 0.13045016 0.81600004
-0.29595238 0.13076988 0.81800002
-0.29419601 0.13076988 0.81800002
-0.29243961 0.13076988 0.81800002
-0.2917493 0.13124949 0.82100004
-0.2906929 0.13156921 0.82300001
-0.28997895 0.13204882 0.82600003
-0.2906478 0.13316788 0.83300006
-0.29128659 0.13428693 0.84000003
-0.29051682 0.13476652 0.84300005
-0.28870675 0.13476652 0.84300005
-0.28689668 0.13476652 0.84300005
-0.2850866 0.13476652 0.84300005
-0.2839486 0.13508625 0.84500003
-0.28246811 0.13524611 0.84600002
-0.28131509 0.13556585 0.84800005
-0.27949429 0.13556585 0.84800005
-0.27832833 0.13588558 0.85000002
-0.27682853 0.13604544 0.85100001
-0.27500126 0.13604544 0.85100001
-0.27317402 0.13604544 0.85100001
-0.27134678 0.13604544 0.85100001
-0.26951954 0.13604544 0.85100001
-0.26800686 0.13620532 0.85200006
-0.26617745 0.13620532 0.85200006
-0.26434806 0.13620532 0.85200006
-0.26251864 0.13620532 0.85200006
-0.26068926 0.13620532 0.85200006
-0.25885984 0.13620532 0.85200006
-0.25733215 0.13636518 0.85300004
-0.25550061 0.13636518 0.85300004
-0.25366905 0.13636518 0.85300004
-0.25213274 0.13652503 0.85400003
-0.25059211 0.13668491 0.85500002
-0.24875629 0.13668491 0.85500002
-0.24720925 0.13684477 0.85600007
-0.24508461 0.13668491 0.85500002
-0.24324878 0.13668491 0.85500002
-0.24141292 0.13668491 0.85500002
-0.2395771 0.13668491 0.85500002
-0.23746319 0.13652503 0.85400003
-0.23562951 0.13652503 0.85400003
-0.23352204 0.13636518 0.85300004
-0.23196211 0.13652503 0.85400003
-0.23012841 0.13652503 0.85400003
-0.22829473 0.13652503 0.85400003
-0.22646105 0.13652503 0.85400003
-0.22462735 0.13652503 0.85400003
-0.22305454 0.13668491 0.85500002
-0.22121869 0.13668491 0.85500002
-0.21912627 0.13652503 0.85400003
-0.217547 0.13668491 0.85500002
-0.21571118 0.13668491 0.85500002
-0.21362521 0.13652503 0.85400003
-0.2112955 0.13620532 0.85200006
-0.2094661 0.13620532 0.85200006
-0.20739299 0.13604544 0.85100001
-0.20556575 0.13604544 0.85100001
-0.20349909 0.13588558 0.85000002
-0.20167398 0.13588558 0.85000002
-0.19984888 0.13588558 0.85000002
-0.19825673 0.13604544 0.85100001
-0.19642949 0.13604544 0.85100001
-0.19460224 0.13604544 0.85100001
-0.19254845 0.13588558 0.85000002
-0.19072336 0.13588558 0.85000002
-0.18912049 0.13604544 0.85100001
-0.18707316 0.13588558 0.85000002
-0.18524805 0.13588558 0.85000002
-0.18363872 0.13604544 0.85100001
-0.18181148 0.13604544 0.85100001
-0.18019573 0.13620532 0.85200006
-0.17836633 0.13620532 0.85200006
-0.17653695 0.13620532 0.85200006
-0.1749126 0.13636518 0.85300004
-0.17287815 0.13620532 0.85200006
-0.17104875 0.13620532 0.85200006
-0.16921934 0.13620532 0.85200006
-0.16719347 0.13604544 0.85100001
-0.16517189 0.13588558 0.85000002
-0.1633468 0.13588558 0.85000002
-0.1615217 0.13588558 0.85000002
-0.15969659 0.13588558 0.85000002
-0.15805721 0.13604544 0.85100001
-0.15641356 0.13620532 0.85200006
-0.15476559 0.13636518 0.85300004
-0.15311334 0.13652503 0.85400003
-0.15145677 0.13668491 0.85500002
-0.14979593 0.13684477 0.85600007
-0.14795797 0.13684477 0.85600007
-0.14611998 0.13684477 0.85600007
-0.14428198 0.13684477 0.85600007
-0.1426104 0.13700464 0.85700005
-0.14077027 0.13700464 0.85700005
-0.13876802 0.13684477 0.85600007
-0.13693003 0.13684477 0.85600007
-0.13493422 0.13668491 0.85500002
-0.13294272 0.13652503 0.85400003
-0.1309555 0.13636518 0.85300004
-0.12897259 0.13620532 0.85200006
-0.12714319 0.13620532 0.85200006
-0.12531379 0.13620532 0.85200006
-0.12348439 0.13620532 0.85200006
-0.12179777 0.13636518 0.85300004
-0.1202475 0.13668491 0.85500002
-0.11855016 0.13684477 0.85600007
-0.11684853 0.13700464 0.85700005
-0.11514259 0.1371645 0.85800004
-0.11343236 0.13732436 0.85900003
-0.11171783 0.13748422 0.86000001
-0.10999902 0.1376441 0.86100006
-0.1082759 0.13780397 0.86200005
-0.10642503 0.13780397 0.86200005
-0.10457416 0.13780397 0.86200005
-0.10272329 0.13780397 0.86200005
-0.10087242 0.13780397 0.86200005
-0.099021554 0.13780397 0.86200005
-0.097170681 0.13780397 0.86200005
-0.095319808 0.13780397 0.86200005
-0.093360506 0.1376441 0.86100006
-0.091511786 0.1376441 0.86100006
-0.089558922 0.13748422 0.86000001
-0.08771234 0.13748422 0.86000001
-0.085865766 0.13748422 0.86000001
-0.084116898 0.1376441 0.86100006
-0.082363717 0.13780397 0.86200005
-0.080512851 0.13780397 0.86200005
-0.078661978 0.13780397 0.86200005
-0.076811112 0.13780397 0.86200005
-0.074960239 0.13780397 0.86200005
-0.073194183 0.13796383 0.86300004
-0.071423829 0.13812369 0.86400002
-0.06964919 0.13828357 0.86500007
-0.067870252 0.13844343 0.86600006
-0.066163234 0.13876316 0.86800003
-0.06437356 0.13892302 0.86900002
-0.062507659 0.13892302 0.86900002
-0.060641762 0.13892302 0.86900002
-0.058775857 0.13892302 0.86900002
-0.056909956 0.13892302 0.86900002
-0.055044062 0.13892302 0.86900002
-0.053178158 0.13892302 0.86900002
-0.051312257 0.13892302 0.86900002
-0.049389459 0.13876316 0.86800003
-0.047525704 0.13876316 0.86800003
-0.045714557 0.13892302 0.86900002
-0.043899119 0.13908289 0.87000006
-0.042031072 0.13908289 0.87000006
-0.040116854 0.13892302 0.86900002
-0.038294975 0.13908289 0.87000006
-0.036510665 0.13940261 0.87200004
-0.034638327 0.13940261 0.87200004
-0.032765981 0.13940261 0.87200004
-0.03092907 0.13956249 0.87300003
-0.029021299 0.13940261 0.87200004
-0.027211225 0.13972235 0.87400001
-0.025334589 0.13972235 0.87400001
-0.023484794 0.13988222 0.87500006
-0.021606011 0.13988222 0.87500006
-0.019772317 0.14020194 0.87700003
-0.017909637 0.1403618 0.87800002
-0.016024413 0.1403618 0.87800002
-0.014139188 0.1403618 0.87800002
-0.012253962 0.1403618 0.87800002
-0.010368737 0.1403618 0.87800002
-0.0084931748 0.14052168 0.87900007
-0.0066058026 0.14052168 0.87900007
-0.0047237985 0.14068155 0.88000005
-0.0028407206 0.14100127 0.88200003
-0.00094798038 0.14116113 0.88300002
0.00094798038 0.14116113 0.88300002
0.0028439413 0.14116113 0.88300002
0.004739902 0.14116113 0.88300002
0.0066433782 0.141321 0.88400006
0.0085318238 0.14116113 0.88300002
0.010427784 0.14116113 0.88300002
0.012337702 0.141321 0.88400006
0.014251915 0.14148086 0.88500005
0.016170422 0.14164074 0.88600004
0.018072823 0.14164074 0.88600004
0.019975226 0.14164074 0.88600004
0.021951707 0.14212033 0.88900006
0.02388739 0.14228019 0.89000005
0.025856355 0.14259993 0.89200002
0.027802775 0.1427598 0.89300007
0.029753488 0.14291966 0.89400005
0.031708498 0.14307952 0.89500004
0.033630222 0.14307952 0.89500004
0.035512228 0.14291966 0.89400005
0.037431806 0.14291966 0.89400005
0.039351389 0.14291966 0.89400005
0.041317131 0.14307952 0.89500004
0.04323886 0.14307952 0.89500004
0.045110125 0.14291966 0.89400005
0.047082312 0.14307952 0.89500004
0.049058791 0.14323938 0.89600003
0.050982665 0.14323938 0.89600003
0.052906539 0.14323938 0.89600003
0.054891609 0.14339925 0.89700001
0.056880977 0.14355911 0.89800006
0.058874629 0.14371899 0.89900005
0.060804948 0.14371899 0.89900005
0.062735267 0.14371899 0.89900005
0.064737514 0.14387885 0.90000004
0.066669971 0.14387885 0.90000004
0.068678655 0.14403871 0.90100002
0.070613272 0.14403871 0.90100002
0.072628401 0.14419858 0.90200007
0.074647821 0.14435844 0.90300006
0.076586731 0.14435844 0.90300006
0.078525633 0.14435844 0.90300006
0.080642752 0.14467818 0.90500003
0.082768463 0.14499791 0.90700006
0.084902756 0.14531763 0.90900004
0.086854547 0.14531763 0.90900004
0.088806339 0.14531763 0.90900004
0.090758123 0.14531763 0.90900004
0.092811897 0.1454775 0.91000003
0.094765835 0.1454775 0.91000003
0.096719772 0.1454775 0.91000003
0.098673701 0.1454775 0.91000003
0.10062764 0.1454775 0.91000003
0.10258158 0.1454775 0.91000003
0.10465039 0.14563738 0.91100007
0.10660647 0.14563738 0.91100007
0.10868172 0.14579724 0.91200006
0.11051863 0.14563738 0.91100007
0.11259818 0.14579724 0.91200006
0.1145564 0.14579724 0.91200006
0.11651464 0.14579724 0.91200006
0.11834297 0.14563738 0.91100007
0.12029905 0.14563738 0.91100007
0.12225513 0.14563738 0.91100007
0.12448391 0.1459571 0.91300005
0.12644427 0.1459571 0.91300005
0.12854528 0.14611696 0.91400003
0.13050781 0.14611696 0.91400003
0.13261527 0.14627683 0.91500002
0.13472703 0.14643669 0.91600007
0.13669385 0.14643669 0.91600007
0.13881204 0.14659657 0.91700006
0.14093453 0.14675643 0.91800004
0.14290564 0.14675643 0.91800004
0.14487675 0.14675643 0.91800004
0.14684786 0.14675643 0.91800004
0.14914319 0.14707614 0.92000002
0.15161139 0.14755575 0.92300004
0.15625574 0.1501136 0.93900007
0.1606317 0.15235172 0.95300007
0.16387287 0.15347077 0.96000004
0.16627987 0.1537905 0.96200007
0.16852044 0.15395036 0.96300006
0.17041102 0.1537905 0.96200007
0.17175946 0.15315105 0.95800006
0.17327215 0.15267144 0.95500004
0.17495555 0.15235172 0.95300007
0.17663033 0.15203199 0.95100003
0.17829655 0.15171225 0.94900006
0.18014421 0.15155239 0.94800007
0.18160321 0.15107279 0.94500005
0.18343797 0.15091293 0.94400007
0.18526843 0.15075305 0.94300002
0.18709461 0.15059319 0.94200003
0.18851499 0.1501136 0.93900007
0.19032827 0.14995372 0.93800002
0.19213729 0.14979386 0.93700004
0.19311318 0.14899454 0.93200004
0.19406758 0.14819521 0.92700005
0.19521204 0.14755575 0.92300004
0.19505744 0.1459571 0.91300005
0.19399674 0.14371899 0.89900005
0.19374767 0.14212033 0.88900006
0.19433598 0.14116113 0.88300002
0.19512078 0.1403618 0.87800002
0.19610849 0.13972235 0.87400001
0.19753206 0.13940261 0.87200004
0.19871838 0.13892302 0.86900002
0.20012264 0.13860328 0.86700004
0.2008194 0.13780397 0.86200005
nan nan nan
0.20001315 0.13476652 0.84300005
0.20062616 0.13396719 0.83800006
0.20121771 0.13316788 0.83300006
0.20203149 0.13252841 0.82900006
0.20331979 0.13220868 0.82700002
0.20484751 0.13204882 0.82600003
0.20587066 0.13156921 0.82300001
0.2063763 0.13076988 0.81800002
0.20736937 0.1302903 0.81500006
0.20809299 0.12965083 0.81100005
0.20931686 0.1293311 0.80900002
0.21027131 0.1288515 0.80600005
0.21147585 0.12853177 0.80400002
0.21267186 0.12821203 0.80200005
0.2135919 0.12773244 0.79900002
0.21422961 0.12709297 0.79500002
0.21512179 0.12661339 0.79200006
0.2162748 0.12629366 0.79000002
0.21741927 0.12597392 0.78800005
0.21855511 0.12565419 0.78600001
0.2199626 0.12549433 0.78500003
0.22136578 0.12533446 0.78400004
0.22276469 0.1251746 0.78300005
0.22415927 0.12501474 0.78200006
0.22526075 0.124695 0.78000003
0.22664464 0.12453514 0.77900004
0.22773108 0.1242154 0.77700001
0.22880898 0.12389567 0.77500004
0.23017566 0.12373581 0.77400005
0.23153807 0.12357595 0.77300006
0.23289613 0.12341607 0.77200001
0.23455375 0.12341607 0.77200001
0.23590541 0.12325621 0.77100003
0.23756088 0.12325621 0.77100003
0.23890612 0.12309635 0.77000004
0.24055943 0.12309635 0.77000004
0.24189821 0.12293649 0.76900005
0.24354939 0.12293649 0.76900005
0.24551943 0.12309635 0.77000004
0.24749374 0.12325621 0.77100003
0.24914922 0.12325621 0.77100003
0.25080469 0.12325621 0.77100003
0.25180531 0.12293649 0.76900005
0.25312689 0.12277661 0.76800001
0.25411242 0.12245689 0.76600003
0.25442165 0.12181742 0.76200002
0.25404158 0.12085824 0.75600004
0.25431213 0.12021877 0.75200003
0.25558648 0.12005891 0.75100005
0.25651404 0.11973917 0.74900001
0.25743306 0.11941945 0.74700004
0.25903699 0.11941945 0.74700004
0.25994313 0.11909972 0.74500006
0.26154277 0.11909972 0.74500006
0.26314244 0.11909972 0.74500006
0.26438668 0.11893985 0.74400002
0.2656267 0.11877998 0.74300003
0.26722205 0.11877998 0.74300003
0.26954103 0.11909972 0.74500006
0.27186856 0.11941945 0.74700004
0.27420467 0.11973917 0.74900001
0.27654943 0.12005891 0.75100005
0.27890271 0.12037864 0.75300002
0.28051952 0.12037864 0.75300002
0.28251106 0.1205385 0.75400001
0.28375319 0.12037864 0.75300002
0.28537002 0.12037864 0.75300002
0.2862246 0.12005891 0.75100005
0.28783715 0.12005891 0.75100005
0.28944966 0.12005891 0.75100005
0.29106221 0.12005891 0.75100005
0.29267475 0.12005891 0.75100005
0.29428726 0.12005891 0.75100005
0.29589981 0.12005891 0.75100005
0.29751232 0.12005891 0.75100005
0.29912487 0.12005891 0.75100005
0.30033696 0.11989904 0.75000006
0.30114216 0.11957931 0.74800003
0.30234349 0.11941945 0.74700004
0.30354053 0.11925958 0.74600005
0.30432427 0.11893985 0.74400002
0.3050994 0.11862012 0.74200004
0.30545262 0.11814052 0.73900002
0.30662391 0.11798066 0.73800004
0.30779091 0.11782079 0.73700005
0.30895361 0.11766093 0.73600006
0.310112 0.11750106 0.73500001
