# .PCD v0.7 - Point Cloud Data file format
VERSION 0.7
FIELDS x y z
SIZE 4 4 4
TYPE F F F
COUNT 1 1 1
WIDTH 1620
HEIGHT 1
VIEWPOINT 0 0 0 1 0 0 0
POINTS 1620
DATA ascii
nan nan nan
-0.2305117 0.10582821 0.82900006
-0.23093899 0.10684947 0.83700001
-0.23023684 0.1073601 0.84100002
-0.22897433 0.10761542 0.84300005
-0.22716424 0.10761542 0.84300005
-0.22562149 0.10774308 0.84400004
-0.22380929 0.10774308 0.84400004
-0.22173402 0.10761542 0.84300005
-0.21992396 0.10761542 0.84300005
-0.21811387 0.10761542 0.84300005
-0.21630381 0.10761542 0.84300005
-0.21449372 0.10761542 0.84300005
-0.21268366 0.10761542 0.84300005
-0.21087359 0.10761542 0.84300005
-0.2090635 0.10761542 0.84300005
-0.20676172 0.1073601 0.84100002
-0.20495594 0.1073601 0.84100002
-0.20363329 0.10761542 0.84300005
-0.20182322 0.10761542 0.84300005
-0.20001315 0.10761542 0.84300005
-0.19820307 0.10761542 0.84300005
-0.19662596 0.10774308 0.84400004
-0.19504456 0.10787074 0.84500003
-0.19345886 0.10799839 0.84600002
-0.19141582 0.10787074 0.84500003
-0.18982583 0.10799839 0.84600002
-0.18867603 0.10838136 0.84900004
-0.18751334 0.10876434 0.85200006
-0.18633774 0.10914731 0.85500002
-0.18493348 0.10940263 0.85700005
-0.18394794 0.10991326 0.86100006
-0.18252219 0.11016857 0.86300004
-0.18087852 0.11029623 0.86400002
-0.17964499 0.1106792 0.86700004
-0.17819348 0.11093452 0.86900002
-0.1765305 0.11106218 0.87000006
-0.17506397 0.11131749 0.87200004
-0.17319162 0.11131749 0.87200004
-0.17131928 0.11131749 0.87200004
-0.16964126 0.11144514 0.87300003
-0.16776676 0.11144514 0.87300003
-0.16589229 0.11144514 0.87300003
-0.1640178 0.11144514 0.87300003
-0.1621433 0.11144514 0.87300003
-0.1604524 0.1115728 0.87400001
-0.15857576 0.1115728 0.87400001
-0.15669912 0.1115728 0.87400001
-0.15464534 0.11144514 0.87300003
-0.15277085 0.11144514 0.87300003
-0.15072353 0.11131749 0.87200004
-0.14868049 0.11118983 0.87100005
-0.14681029 0.11118983 0.87100005
-0.14477369 0.11106218 0.87000006
-0.14290564 0.11106218 0.87000006
-0.14136182 0.11131749 0.87200004
-0.13932951 0.11118983 0.87100005
-0.13761713 0.11131749 0.87200004
-0.1357448 0.11131749 0.87200004
-0.13387245 0.11131749 0.87200004
-0.1320001 0.11131749 0.87200004
-0.13012776 0.11131749 0.87200004
-0.12825543 0.11131749 0.87200004
-0.12652801 0.11144514 0.87300003
-0.12451074 0.11131749 0.87200004
-0.12263839 0.11131749 0.87200004
-0.12090454 0.11144514 0.87300003
-0.11903006 0.11144514 0.87300003
-0.11715557 0.11144514 0.87300003
-0.11514903 0.11131749 0.87200004
-0.11327668 0.11131749 0.87200004
-0.1115321 0.11144514 0.87300003
-0.10978322 0.1115728 0.87400001
-0.10803005 0.11170047 0.87500006
-0.10590863 0.11144514 0.87300003
-0.10403414 0.11144514 0.87300003
-0.10215965 0.11144514 0.87300003
-0.10028517 0.11144514 0.87300003
-0.098410673 0.11144514 0.87300003
-0.096646763 0.1115728 0.87400001
-0.094878562 0.11170047 0.87500006
-0.092999786 0.11170047 0.87500006
-0.091120996 0.11170047 0.87500006
-0.089242212 0.11170047 0.87500006
-0.087363429 0.11170047 0.87500006
-0.085289255 0.11144514 0.87300003
-0.083319217 0.11131749 0.87200004
-0.08126007 0.11106218 0.87000006
-0.079392016 0.11106218 0.87000006
-0.077434868 0.11093452 0.86900002
-0.075482003 0.11080686 0.86800003
-0.073533438 0.1106792 0.86700004
-0.071754493 0.11080686 0.86800003
-0.069890745 0.11080686 0.86800003
-0.068105362 0.11093452 0.86900002
-0.066315688 0.11106218 0.87000006
-0.064595789 0.11131749 0.87200004
-0.062795386 0.11144514 0.87300003
-0.060990676 0.1115728 0.87400001
-0.059114039 0.1115728 0.87400001
-0.057237402 0.1115728 0.87400001
-0.055297431 0.11144514 0.87300003
-0.053361744 0.11131749 0.87200004
-0.051489402 0.11131749 0.87200004
-0.049503263 0.11106218 0.87000006
-0.047635213 0.11106218 0.87000006
-0.045767166 0.11106218 0.87000006
-0.043949574 0.11118983 0.87100005
-0.042031072 0.11106218 0.87000006
-0.040209185 0.11118983 0.87100005
-0.038383011 0.11131749 0.87200004
-0.036510665 0.11131749 0.87200004
-0.034598604 0.11118983 0.87100005
-0.032728408 0.11118983 0.87100005
-0.030787356 0.11093452 0.86900002
-0.028921453 0.11093452 0.86900002
-0.027055556 0.11093452 0.86900002
-0.025160668 0.11080686 0.86800003
-0.023323754 0.11093452 0.86900002
-0.021457855 0.11093452 0.86900002
-0.019637045 0.11118983 0.87100005
-0.017787248 0.11131749 0.87200004
-0.015914908 0.11131749 0.87200004
-0.014042565 0.11131749 0.87200004
-0.012184178 0.11144514 0.87300003
-0.010297881 0.11131749 0.87200004
-0.0084255384 0.11131749 0.87200004
-0.0065531963 0.11131749 0.87200004
-0.0046808547 0.11131749 0.87200004
-0.0028052921 0.11118983 0.87100005
-0.00093509734 0.11118983 0.87100005
0.00093402376 0.11106218 0.87000006
0.0028052921 0.11118983 0.87100005
0.0046701189 0.11106218 0.87000006
0.0065381667 0.11106218 0.87000006
0.0084255384 0.11131749 0.87200004
0.010297881 0.11131749 0.87200004
0.012170223 0.11131749 0.87200004
0.014042565 0.11131749 0.87200004
0.015933158 0.11144514 0.87300003
0.017787248 0.11131749 0.87200004
0.01965959 0.11131749 0.87200004
0.021531932 0.11131749 0.87200004
0.023404274 0.11131749 0.87200004
0.025305603 0.11144514 0.87300003
0.027211225 0.1115728 0.87400001
0.029121144 0.11170047 0.87500006
0.030999929 0.11170047 0.87500006
0.032878708 0.11170047 0.87500006
0.034757495 0.11170047 0.87500006
0.036636278 0.11170047 0.87500006
0.038471043 0.1115728 0.87400001
0.040347677 0.1115728 0.87400001
0.042127695 0.11131749 0.87200004
0.044050492 0.11144514 0.87300003
0.045924984 0.11144514 0.87300003
0.047799468 0.11144514 0.87300003
0.04967396 0.11144514 0.87300003
0.051548447 0.11144514 0.87300003
0.053422939 0.11144514 0.87300003
0.055234089 0.11131749 0.87200004
0.057106424 0.11131749 0.87200004
0.05897877 0.11131749 0.87200004
0.060851112 0.11131749 0.87200004
0.062723458 0.11131749 0.87200004
0.064595789 0.11131749 0.87200004
0.066468135 0.11131749 0.87200004
0.068418853 0.11144514 0.87300003
0.070373863 0.1115728 0.87400001
0.072167829 0.11144514 0.87300003
0.07412713 0.1115728 0.87400001
0.076090731 0.11170047 0.87500006
0.077880405 0.1115728 0.87400001
0.079848297 0.11170047 0.87500006
0.08172708 0.11170047 0.87500006
0.083605863 0.11170047 0.87500006
0.085484654 0.11170047 0.87500006
0.087363429 0.11170047 0.87500006
0.089242212 0.11170047 0.87500006
0.091120996 0.11170047 0.87500006
0.092999786 0.11170047 0.87500006
0.094878562 0.11170047 0.87500006
0.096646763 0.1115728 0.87400001
0.098636135 0.11170047 0.87500006
0.10051492 0.11170047 0.87500006
0.10239369 0.11170047 0.87500006
0.10439165 0.11182812 0.87600005
0.10627258 0.11182812 0.87600005
0.10815351 0.11182812 0.87600005
0.10990883 0.11170047 0.87500006
0.11178762 0.11170047 0.87500006
0.1136664 0.11170047 0.87500006
0.11541313 0.1115728 0.87400001
0.11742397 0.11170047 0.87500006
0.11930276 0.11170047 0.87500006
0.12118153 0.11170047 0.87500006
0.12306032 0.11170047 0.87500006
0.1249391 0.11170047 0.87500006
0.12681788 0.11170047 0.87500006
0.12869667 0.11170047 0.87500006
0.13057545 0.11170047 0.87500006
0.13245423 0.11170047 0.87500006
0.13433303 0.11170047 0.87500006
0.13605613 0.1115728 0.87400001
0.13793276 0.1115728 0.87400001
0.13964944 0.11144514 0.87300003
0.14168604 0.1115728 0.87400001
0.14372693 0.11170047 0.87500006
0.14560573 0.11170047 0.87500006
0.14748451 0.11170047 0.87500006
0.14936329 0.11170047 0.87500006
0.15141492 0.11182812 0.87600005
0.15329584 0.11182812 0.87600005
0.15535392 0.11195578 0.87700003
0.1570577 0.11182812 0.87600005
0.15912007 0.11195578 0.87700003
0.16100316 0.11195578 0.87700003
0.16288623 0.11195578 0.87700003
0.16476931 0.11195578 0.87700003
0.16684242 0.11208344 0.87800002
0.16872762 0.11208344 0.87800002
0.17061286 0.11208344 0.87800002
0.17249808 0.11208344 0.87800002
0.17438331 0.11208344 0.87800002
0.17626853 0.11208344 0.87800002
0.17815375 0.11208344 0.87800002
0.18003899 0.11208344 0.87800002
0.18192421 0.11208344 0.87800002
0.18401879 0.1122111 0.87900007
0.18590616 0.1122111 0.87900007
0.18779354 0.1122111 0.87900007
0.1896809 0.1122111 0.87900007
0.19156829 0.1122111 0.87900007
0.19367574 0.11233875 0.88000005
0.19556525 0.11233875 0.88000005
0.19745478 0.11233875 0.88000005
0.19934429 0.11233875 0.88000005
0.20146248 0.11246641 0.88100004
0.20381579 0.11272172 0.88300002
0.20571175 0.11272172 0.88300002
0.20760772 0.11272172 0.88300002
0.20926641 0.11259407 0.88200003
0.21092083 0.11246641 0.88100004
0.21281248 0.11246641 0.88100004
0.21446045 0.11233875 0.88000005
0.21634996 0.11233875 0.88000005
0.21823949 0.11233875 0.88000005
0.22012901 0.11233875 0.88000005
0.22227082 0.11246641 0.88100004
0.22441691 0.11259407 0.88200003
0.22656733 0.11272172 0.88300002
0.22872202 0.11284938 0.88400006
0.23088102 0.11297704 0.88500005
0.23278126 0.11297704 0.88500005
0.23468153 0.11297704 0.88500005
0.23658179 0.11297704 0.88500005
0.23875149 0.1131047 0.88600004
0.2406539 0.1131047 0.88600004
0.2425563 0.1131047 0.88600004
0.24473463 0.11323235 0.88700002
0.24691723 0.11336002 0.88800007
0.24882396 0.11336002 0.88800007
0.25101298 0.11348768 0.88900006
0.25292185 0.11348768 0.88900006
0.25454402 0.11336002 0.88800007
0.25645071 0.11336002 0.88800007
0.25835744 0.11336002 0.88800007
0.2605572 0.11348768 0.88900006
0.26246607 0.11348768 0.88900006
0.26437488 0.11348768 0.88900006
0.26688281 0.11374298 0.89100003
0.26939932 0.1139983 0.89300007
0.27344349 0.1148919 0.90000004
0.28700295 0.11974289 0.93800002
0.29148197 0.12076416 0.94600004
0.29413375 0.12101948 0.94800007
0.2964817 0.12114713 0.94900006
0.29883394 0.12127479 0.95000005
0.30150715 0.1215301 0.95200002
0.30450785 0.12191308 0.95500004
0.30752143 0.12229605 0.95800006
0.31022471 0.12255137 0.96000004
0.31261131 0.12267902 0.96100003
0.31467474 0.12267902 0.96100003
0.31673819 0.12267902 0.96100003
0.3194651 0.12293434 0.96300006
0.32153288 0.12293434 0.96300006
0.32360059 0.12293434 0.96300006
0.32499194 0.12267902 0.96100003
nan nan nan
nan nan nan
nan nan nan
0.30689123 0.11297704 0.88500005
0.30704692 0.11233875 0.88000005
0.30823427 0.11208344 0.87800002
0.30905989 0.11170047 0.87500006
0.30916187 0.11106218 0.87000006
0.30995739 0.1106792 0.86700004
0.31002074 0.11004092 0.86200005
0.30933899 0.10914731 0.85500002
0.30971906 0.10863668 0.85100001
0.31044802 0.10825371 0.84800005
0.31153235 0.10799839 0.84600002
0.31149691 0.1073601 0.84100002
0.31181255 0.10684947 0.83700001
0.31211102 0.10633884 0.83300006
0.31239229 0.10582821 0.82900006
0.31341437 0.10557289 0.82700002
0.31442782 0.10531758 0.82500005
0.3154327 0.10506226 0.82300001
0.31681442 0.1049346 0.82200003
0.31780428 0.10467929 0.82000005
0.31839582 0.10429632 0.81700003
0.31858259 0.10378569 0.81300002
0.31875226 0.10327505 0.80900002
0.31930086 0.10289209 0.80600005
0.32023486 0.10263677 0.80400002
0.32075986 0.1022538 0.80100006
0.32167456 0.10199848 0.79900002
0.32298541 0.10187082 0.79800004
0.32347816 0.10148785 0.79500002
0.32436714 0.10123254 0.79300004
0.32524747 0.10097721 0.79100001
0.32611924 0.1007219 0.78900003
0.32739788 0.10059424 0.78800005
0.32825461 0.10033893 0.78600001
0.32910272 0.10008362 0.78400004
0.33036423 0.099955961 0.78300005
0.33077323 0.099572986 0.78000003
0.33116937 0.099190012 0.77700001
0.33240938 0.099062353 0.77600002
0.33364511 0.098934695 0.77500004
0.3340112 0.09855172 0.77200001
0.3356688 0.09855172 0.77200001
0.33688951 0.098424062 0.77100003
0.33766678 0.098168753 0.76900005
0.33931795 0.098168753 0.76900005
0.34052572 0.098041087 0.76800001
0.34217477 0.098041087 0.76800001
0.34382379 0.098041087 0.76800001
0.34547281 0.098041087 0.76800001
0.34712186 0.098041087 0.76800001
0.34877089 0.098041087 0.76800001
0.34996367 0.097913437 0.76700002
0.35161054 0.097913437 0.76700002
0.35325745 0.097913437 0.76700002
0.35490432 0.097913437 0.76700002
0.35562149 0.09765812 0.76500005
0.3572641 0.09765812 0.76500005
0.35843754 0.097530462 0.76400006
0.35960665 0.097402804 0.76300001
0.36077151 0.097275145 0.76200002
0.36145648 0.097019836 0.76000005
0.36261058 0.096892178 0.75900006
0.36376038 0.096764512 0.75800002
0.36490592 0.096636854 0.75700003
0.36653131 0.096636854 0.75700003
0.36864308 0.096764512 0.75800002
0.37124762 0.097019836 0.76000005
0.37435135 0.097402804 0.76300001
0.37648246 0.097530462 0.76400006
0.3781229 0.097530462 0.76400006
0.38026041 0.09765812 0.76500005
0.38240221 0.097785778 0.76600003
0.38404694 0.097785778 0.76600003
0.3856917 0.097785778 0.76600003
0.38632512 0.097530462 0.76400006
0.38796559 0.097530462 0.76400006
0.389606 0.097530462 0.76400006
0.39073434 0.097402804 0.76300001
0.39340118 0.09765812 0.76500005
nan nan nan
nan nan nan
nan nan nan
nan nan nan
nan nan nan
nan nan nan
nan nan nan
nan nan nan
nan nan nan
nan nan nan
nan nan nan
nan nan nan
nan nan nan
nan nan nan
nan nan nan
nan nan nan
nan nan nan
nan nan nan
nan nan nan
nan nan nan
nan nan nan
nan nan nan
nan nan nan
nan nan nan
nan nan nan
nan nan nan
nan nan nan
nan nan nan
nan nan nan
nan nan nan
nan nan nan
nan nan nan
nan nan nan
nan nan nan
nan nan nan
nan nan nan
nan nan nan
nan nan nan
nan nan nan
-0.36464182 0.10994472 0.84700006
-0.36325151 0.11007452 0.84800005
-0.36143067 0.11007452 0.84800005
-0.36045802 0.11033413 0.85000002
-0.35863292 0.11033413 0.85000002
nan nan nan
nan nan nan
nan nan nan
nan nan nan
nan nan nan
nan nan nan
nan nan nan
nan nan nan
nan nan nan
nan nan nan
nan nan nan
nan nan nan
nan nan nan
nan nan nan
nan nan nan
nan nan nan
nan nan nan
nan nan nan
nan nan nan
nan nan nan
nan nan nan
nan nan nan
nan nan nan
nan nan nan
nan nan nan
nan nan nan
nan nan nan
nan nan nan
nan nan nan
nan nan nan
nan nan nan
nan nan nan
nan nan nan
nan nan nan
nan nan nan
nan nan nan
nan nan nan
nan nan nan
nan nan nan
nan nan nan
nan nan nan
nan nan nan
nan nan nan
nan nan nan
nan nan nan
nan nan nan
nan nan nan
nan nan nan
nan nan nan
nan nan nan
nan nan nan
nan nan nan
nan nan nan
nan nan nan
nan nan nan
nan nan nan
nan nan nan
nan nan nan
nan nan nan
nan nan nan
nan nan nan
nan nan nan
nan nan nan
nan nan nan
nan nan nan
nan nan nan
-0.23218006 0.10838705 0.83500004
-0.23176673 0.10903608 0.84000003
-0.23023684 0.10916588 0.84100002
-0.22897433 0.10942549 0.84300005
-0.22689477 0.10929569 0.84200007
-0.22535416 0.10942549 0.84300005
-0.22354411 0.10942549 0.84300005
-0.22173402 0.10942549 0.84300005
-0.21966308 0.10929569 0.84200007
-0.21811387 0.10942549 0.84300005
-0.21579063 0.10916588 0.84100002
-0.21398483 0.10916588 0.84100002
-0.21217906 0.10916588 0.84100002
-0.2103733 0.10916588 0.84100002
-0.2085675 0.10916588 0.84100002
-0.20651586 0.10903608 0.84000003
-0.20471224 0.10903608 0.84000003
-0.20315017 0.10916588 0.84100002
-0.20158382 0.10929569 0.84200007
-0.1995386 0.10916588 0.84100002
-0.19773282 0.10916588 0.84100002
-0.19616003 0.10929569 0.84200007
-0.19458292 0.10942549 0.84300005
-0.19277285 0.10942549 0.84300005
-0.19096276 0.10942549 0.84300005
-0.18937708 0.1095553 0.84400004
-0.18845379 0.11007452 0.84800005
-0.18729323 0.11046393 0.85100001
-0.18633774 0.11098315 0.85500002
-0.18536507 0.11150237 0.85900003
-0.18416157 0.11189178 0.86200005
-0.18273368 0.11215139 0.86400002
-0.18087852 0.11215139 0.86400002
-0.17943779 0.11241101 0.86600006
-0.17798842 0.11267062 0.86800003
-0.17632759 0.11280042 0.86900002
-0.17466246 0.11293023 0.87000006
-0.17259578 0.11280042 0.86900002
-0.17092635 0.11293023 0.87000006
-0.16905831 0.11293023 0.87000006
-0.16719025 0.11293023 0.87000006
-0.16532221 0.11293023 0.87000006
-0.16326629 0.11280042 0.86900002
-0.16158612 0.11293023 0.87000006
-0.15990165 0.11306003 0.87100005
-0.15821289 0.11318983 0.87200004
-0.15634054 0.11318983 0.87200004
-0.15446821 0.11318983 0.87200004
-0.15259586 0.11318983 0.87200004
-0.15055068 0.11306003 0.87100005
-0.14833908 0.11280042 0.86900002
-0.14647318 0.11280042 0.86900002
-0.14460728 0.11280042 0.86900002
-0.14257711 0.11267062 0.86800003
-0.14087547 0.11280042 0.86900002
-0.1388496 0.11267062 0.86800003
-0.13714367 0.11280042 0.86900002
-0.13527778 0.11280042 0.86900002
-0.13341187 0.11280042 0.86900002
-0.13154598 0.11280042 0.86900002
-0.12968007 0.11280042 0.86900002
-0.12781417 0.11280042 0.86900002
-0.12609321 0.11293023 0.87000006
-0.12422516 0.11293023 0.87000006
-0.12235712 0.11293023 0.87000006
-0.12062755 0.11306003 0.87100005
-0.11889371 0.11318983 0.87200004
-0.11702137 0.11318983 0.87200004
-0.11514903 0.11318983 0.87200004
-0.11314678 0.11306003 0.87100005
-0.11140434 0.11318983 0.87200004
-0.109532 0.11318983 0.87200004
-0.10765966 0.11318983 0.87200004
-0.10554469 0.11293023 0.87000006
-0.10367664 0.11293023 0.87000006
-0.10169157 0.11280042 0.86900002
-0.099825665 0.11280042 0.86900002
-0.097959764 0.11280042 0.86900002
-0.096093863 0.11280042 0.86900002
-0.094444834 0.11306003 0.87100005
-0.092680924 0.11318983 0.87200004
-0.090808585 0.11318983 0.87200004
-0.088936239 0.11318983 0.87200004
-0.087063894 0.11318983 0.87200004
-0.085093863 0.11306003 0.87100005
-0.083032563 0.11280042 0.86900002
-0.081073262 0.11267062 0.86800003
-0.079300761 0.11280042 0.86900002
-0.077345759 0.11267062 0.86800003
-0.07539504 0.11254081 0.86700004
-0.073448621 0.11241101 0.86600006
-0.071671829 0.11254081 0.86700004
-0.069810227 0.11254081 0.86700004
-0.067948617 0.11254081 0.86700004
-0.066087015 0.11254081 0.86700004
-0.06437356 0.11280042 0.86900002
-0.062579595 0.11293023 0.87000006
-0.060711548 0.11293023 0.87000006
-0.058911134 0.11306003 0.87100005
-0.057040937 0.11306003 0.87100005
-0.055107407 0.11293023 0.87000006
-0.053178158 0.11280042 0.86900002
-0.051312257 0.11280042 0.86900002
-0.049446359 0.11280042 0.86900002
-0.047525704 0.11267062 0.86800003
-0.045661952 0.11267062 0.86800003
-0.043848656 0.11280042 0.86900002
-0.041934446 0.11267062 0.86800003
-0.04007069 0.11267062 0.86800003
-0.038250957 0.11280042 0.86900002
-0.036385056 0.11280042 0.86900002
-0.034519155 0.11280042 0.86900002
-0.03261568 0.11267062 0.86800003
-0.030716499 0.11254081 0.86700004
-0.028854892 0.11254081 0.86700004
-0.026993288 0.11254081 0.86700004
-0.025102695 0.11241101 0.86600006
-0.023270076 0.11254081 0.86700004
-0.02140847 0.11254081 0.86700004
-0.019591954 0.11280042 0.86900002
-0.017726054 0.11280042 0.86900002
-0.015878405 0.11293023 0.87000006
-0.014026461 0.11306003 0.87100005
-0.012156266 0.11306003 0.87100005
-0.010274261 0.11293023 0.87000006
-0.008396551 0.11280042 0.86900002
-0.0065306509 0.11280042 0.86900002
-0.0046647508 0.11280042 0.86900002
-0.0027956297 0.11267062 0.86800003
-0.0009318766 0.11267062 0.86800003
0.00093080301 0.11254081 0.86700004
0.0027956297 0.11267062 0.86800003
0.0046593826 0.11267062 0.86800003
0.006523136 0.11267062 0.86800003
0.008396551 0.11280042 0.86900002
0.010262452 0.11280042 0.86900002
0.012128352 0.11280042 0.86900002
0.014010358 0.11293023 0.87000006
0.015896656 0.11306003 0.87100005
0.017746452 0.11293023 0.87000006
0.019614501 0.11293023 0.87000006
0.021482548 0.11293023 0.87000006
0.023350595 0.11293023 0.87000006
0.025276616 0.11318983 0.87200004
0.027148958 0.11318983 0.87200004
0.029021299 0.11318983 0.87200004
0.03092907 0.11331964 0.87300003
0.032803558 0.11331964 0.87300003
0.034678049 0.11331964 0.87300003
0.036552534 0.11331964 0.87300003
0.038383011 0.11318983 0.87200004
0.040255349 0.11318983 0.87200004
0.042127695 0.11318983 0.87200004
0.044000033 0.11318983 0.87200004
0.045872375 0.11318983 0.87200004
0.047689963 0.11306003 0.87100005
0.049560159 0.11306003 0.87100005
0.051489402 0.11318983 0.87200004
0.053361744 0.11318983 0.87200004
0.055170748 0.11306003 0.87100005
0.057040937 0.11306003 0.87100005
0.05897877 0.11318983 0.87200004
0.060851112 0.11318983 0.87200004
0.062723458 0.11318983 0.87200004
0.064595789 0.11318983 0.87200004
0.066468135 0.11318983 0.87200004
0.06834048 0.11318983 0.87200004
0.070212826 0.11318983 0.87200004
0.072085157 0.11318983 0.87200004
0.073957503 0.11318983 0.87200004
0.075916804 0.11331964 0.87300003
0.077702187 0.11318983 0.87200004
0.07966578 0.11331964 0.87300003
0.081540272 0.11331964 0.87300003
0.083510309 0.11344944 0.87400001
0.085386947 0.11344944 0.87400001
0.087263577 0.11344944 0.87400001
0.089140221 0.11344944 0.87400001
0.090912722 0.11331964 0.87300003
0.092893496 0.11344944 0.87400001
0.09466169 0.11331964 0.87300003
0.096536182 0.11331964 0.87300003
0.098523401 0.11344944 0.87400001
0.10040004 0.11344944 0.87400001
0.10239369 0.11357925 0.87500006
0.10427248 0.11357925 0.87500006
0.10615127 0.11357925 0.87500006
0.10803005 0.11357925 0.87500006
0.10990883 0.11357925 0.87500006
0.11165985 0.11344944 0.87400001
0.11353649 0.11344944 0.87400001
0.11528108 0.11331964 0.87300003
0.11728977 0.11344944 0.87400001
0.1191664 0.11344944 0.87400001
0.12104303 0.11344944 0.87400001
0.12306032 0.11357925 0.87500006
0.1249391 0.11357925 0.87500006
0.12681788 0.11357925 0.87500006
0.12869667 0.11357925 0.87500006
0.13057545 0.11357925 0.87500006
0.13230285 0.11344944 0.87400001
0.13417949 0.11344944 0.87400001
0.13590047 0.11331964 0.87300003
0.13777494 0.11331964 0.87300003
0.13948947 0.11318983 0.87200004
0.14152393 0.11331964 0.87300003
0.14356267 0.11344944 0.87400001
0.14560573 0.11357925 0.87500006
0.14765306 0.11370905 0.87600005
0.14970469 0.11383886 0.87700003
0.15158777 0.11383886 0.87700003
0.15347083 0.11383886 0.87700003
0.15535392 0.11383886 0.87700003
0.15723699 0.11383886 0.87700003
0.15893863 0.11370905 0.87600005
0.16063599 0.11357925 0.87500006
0.1627005 0.11370905 0.87600005
0.16476931 0.11383886 0.87700003
0.1666524 0.11383886 0.87700003
0.16872762 0.11396866 0.87800002
0.17061286 0.11396866 0.87800002
0.17249808 0.11396866 0.87800002
0.17438331 0.11396866 0.87800002
0.17626853 0.11396866 0.87800002
0.17815375 0.11396866 0.87800002
0.18003899 0.11396866 0.87800002
0.18192421 0.11396866 0.87800002
0.18401879 0.11409847 0.87900007
0.18611765 0.11422828 0.88000005
0.18800718 0.11422828 0.88000005
0.1898967 0.11422828 0.88000005
0.19178621 0.11422828 0.88000005
0.19367574 0.11422828 0.88000005
0.19578749 0.11435807 0.88100004
0.19767916 0.11435807 0.88100004
0.19979733 0.11448788 0.88200003
0.20191982 0.11461768 0.88300002
0.20427744 0.1148773 0.88500005
0.2061777 0.1148773 0.88500005
0.20784284 0.11474749 0.88400006
0.20974095 0.11474749 0.88400006
0.21139964 0.11461768 0.88300002
0.21329559 0.11461768 0.88300002
0.21494785 0.11448788 0.88200003
0.21659581 0.11435807 0.88100004
0.21873547 0.11448788 0.88200003
0.2206293 0.11448788 0.88200003
0.2227754 0.11461768 0.88300002
0.22467135 0.11461768 0.88300002
0.22682393 0.11474749 0.88400006
0.22923948 0.1150071 0.88600004
0.23140278 0.11513691 0.88700002
0.2330443 0.1150071 0.88600004
0.23494671 0.1150071 0.88600004
0.23711643 0.11513691 0.88700002
0.23902096 0.11513691 0.88700002
0.24119715 0.11526672 0.88800007
0.24310385 0.11526672 0.88800007
0.24528646 0.11539652 0.88900006
0.24719529 0.11539652 0.88900006
0.24910416 0.11539652 0.88900006
0.25129533 0.11552632 0.89000005
0.25320634 0.11552632 0.89000005
0.25483069 0.11539652 0.88900006
0.2567395 0.11539652 0.88900006
0.25864837 0.11539652 0.88900006
0.2605572 0.11539652 0.88900006
0.26276129 0.11552632 0.89000005
0.26496965 0.11565612 0.89100003
0.26748189 0.11591574 0.89300007
0.27120936 0.11669457 0.89900005
0.27952 0.11942046 0.92000002
0.28608504 0.12136754 0.93500006
0.29055759 0.12240598 0.94300002
0.29289269 0.12253579 0.94400007
0.29554445 0.1227954 0.94600004
0.29789025 0.1229252 0.94700003
0.30024034 0.123055 0.94800007
0.30259472 0.12318481 0.94900006
0.3059164 0.12370403 0.95300007
0.30860895 0.12396364 0.95500004
0.31131011 0.12422324 0.95700002
0.31369242 0.12435305 0.95800006
0.3164086 0.12461266 0.96000004
0.3194651 0.12500207 0.96300006
0.32186675 0.12513188 0.96400005
0.32427266 0.12526168 0.96500003
0.32330105 0.12409344 0.95600003
nan nan nan
nan nan nan
nan nan nan
0.30654445 0.11474749 0.88400006
0.30704692 0.11422828 0.88000005
0.3078832 0.11383886 0.87700003
0.30870667 0.11344944 0.87400001
0.30880651 0.11280042 0.86900002
0.30959988 0.11241101 0.86600006
0.30930144 0.11163218 0.86000001
0.30861542 0.11072354 0.85300004
0.30935511 0.11033413 0.85000002
0.31008193 0.10994472 0.84700006
0.31079587 0.1095553 0.84400004
0.31075615 0.10890628 0.83900005
0.31106749 0.10838705 0.83500004
0.31136164 0.10786784 0.83100003
0.31201547 0.10747842 0.82800007
0.3126564 0.10708901 0.82500005
0.31366557 0.10682939 0.82300001
0.31504944 0.10669959 0.82200003
0.31604359 0.10643999 0.82000005
0.31702915 0.10618037 0.81800002
0.31722668 0.10566115 0.81400001
0.31779888 0.10527174 0.81100005
0.31875226 0.10501213 0.80900002
0.31930086 0.10462271 0.80600005
0.31983659 0.1042333 0.80300003
0.32075986 0.10397369 0.80100006
0.32127199 0.10358427 0.79800004
0.32258067 0.10345447 0.79700005
0.32347816 0.10319486 0.79500002
0.32436714 0.10293525 0.79300004
0.32483628 0.10254584 0.79000002
0.32611924 0.10241603 0.78900003
0.32698241 0.10215642 0.78700006
0.32783699 0.10189681 0.78500003
0.32910272 0.101767 0.78400004
0.32994232 0.1015074 0.78200006
0.33034918 0.10111798 0.77900004
0.33074316 0.10072856 0.77600002
0.33198103 0.10059876 0.77500004
0.33278409 0.10033916 0.77300006
0.33357853 0.10007954 0.77100003
0.33523402 0.10007954 0.77100003
0.33645254 0.09994974 0.77000004
0.33722764 0.099690124 0.76800001
0.33887669 0.099690124 0.76800001
0.34052572 0.099690124 0.76800001
0.34172922 0.09956032 0.76700002
0.34337613 0.09956032 0.76700002
0.34502301 0.09956032 0.76700002
0.34666991 0.09956032 0.76700002
0.34786266 0.099430516 0.76600003
0.34950742 0.099430516 0.76600003
0.35069373 0.099300712 0.76500005
0.35187575 0.099170916 0.76400006
0.35351619 0.099170916 0.76400006
0.35469174 0.099041104 0.76300001
0.35633007 0.099041104 0.76300001
0.35749921 0.0989113 0.76200002
0.35819277 0.098651692 0.76000005
0.35935116 0.098521888 0.75900006
0.36002967 0.098262273 0.75700003
0.36117733 0.098132469 0.75600004
0.36232069 0.098002672 0.75500005
0.36345977 0.097872861 0.75400001
0.36507875 0.097872861 0.75400001
0.36669773 0.097872861 0.75400001
0.36929366 0.098132469 0.75600004
0.3718982 0.098392077 0.75800002
0.37451133 0.098651692 0.76000005
0.37713301 0.0989113 0.76200002
0.37876919 0.0989113 0.76200002
0.38090453 0.099041104 0.76300001
0.38254282 0.099041104 0.76300001
0.38468468 0.099170916 0.76400006
0.38531378 0.0989113 0.76200002
0.38694996 0.0989113 0.76200002
0.38807613 0.098781496 0.76100004
0.38919806 0.098651692 0.76000005
0.39237264 0.099041104 0.76300001
nan nan nan
nan nan nan
nan nan nan
nan nan nan
nan nan nan
nan nan nan
nan nan nan
nan nan nan
nan nan nan
nan nan nan
nan nan nan
nan nan nan
nan nan nan
nan nan nan
nan nan nan
nan nan nan
nan nan nan
nan nan nan
nan nan nan
nan nan nan
nan nan nan
nan nan nan
nan nan nan
nan nan nan
nan nan nan
nan nan nan
nan nan nan
nan nan nan
nan nan nan
nan nan nan
nan nan nan
nan nan nan
nan nan nan
nan nan nan
nan nan nan
nan nan nan
nan nan nan
nan nan nan
nan nan nan
nan nan nan
-0.36025298 0.11097166 0.84100002
nan nan nan
nan nan nan
nan nan nan
-0.3555485 0.11176338 0.84700006
nan nan nan
nan nan nan
nan nan nan
nan nan nan
nan nan nan
nan nan nan
nan nan nan
nan nan nan
nan nan nan
nan nan nan
nan nan nan
nan nan nan
nan nan nan
nan nan nan
nan nan nan
nan nan nan
nan nan nan
nan nan nan
nan nan nan
nan nan nan
nan nan nan
nan nan nan
nan nan nan
nan nan nan
nan nan nan
nan nan nan
nan nan nan
nan nan nan
nan nan nan
nan nan nan
nan nan nan
nan nan nan
nan nan nan
nan nan nan
nan nan nan
nan nan nan
nan nan nan
nan nan nan
nan nan nan
nan nan nan
nan nan nan
nan nan nan
nan nan nan
nan nan nan
nan nan nan
nan nan nan
nan nan nan
nan nan nan
-0.25573894 0.10727701 0.81300002
-0.25430566 0.10740896 0.81400001
-0.25317842 0.10767286 0.81600004
nan nan nan
nan nan nan
nan nan nan
nan nan nan
nan nan nan
nan nan nan
nan nan nan
nan nan nan
nan nan nan
nan nan nan
nan nan nan
nan nan nan
-0.23661292 0.11057581 0.83800006
-0.235374 0.11083971 0.84000003
-0.23412648 0.11110362 0.84200007
-0.23259448 0.11123557 0.84300005
-0.23078439 0.11123557 0.84300005
-0.22897433 0.11123557 0.84300005
-0.22689477 0.11110362 0.84200007
-0.22508685 0.11110362 0.84200007
-0.22327894 0.11110362 0.84200007
-0.221471 0.11110362 0.84200007
-0.21966308 0.11110362 0.84200007
-0.21785514 0.11110362 0.84200007
-0.21579063 0.11097166 0.84100002
-0.21373039 0.11083971 0.84000003
-0.21192677 0.11083971 0.84000003
-0.21012315 0.11083971 0.84000003
-0.20807151 0.11070776 0.83900005
-0.20577832 0.11044385 0.83700001
-0.20373741 0.1103119 0.83600003
-0.20218393 0.11044385 0.83700001
-0.20086558 0.11070776 0.83900005
-0.19906409 0.11070776 0.83900005
-0.19702749 0.11057581 0.83800006
-0.19546111 0.11070776 0.83900005
-0.19365963 0.11070776 0.83900005
-0.19208682 0.11083971 0.84000003
-0.19050971 0.11097166 0.84100002
-0.1891527 0.11123557 0.84300005
-0.18800932 0.11163142 0.84600002
-0.18707316 0.11215923 0.85000002
-0.18611979 0.11268704 0.85400003
-0.18536507 0.1133468 0.85900003
-0.18416157 0.11374266 0.86200005
-0.18273368 0.11400656 0.86400002
-0.18108788 0.11413851 0.86500007
-0.17943779 0.11427047 0.86600006
-0.17778337 0.11440242 0.86700004
-0.17632759 0.11466632 0.86900002
-0.17446168 0.11466632 0.86900002
-0.17259578 0.11466632 0.86900002
-0.17053342 0.11453437 0.86800003
-0.16866966 0.11453437 0.86800003
-0.16680591 0.11453437 0.86800003
-0.16475214 0.11440242 0.86700004
-0.16289052 0.11440242 0.86700004
-0.16102892 0.11440242 0.86700004
-0.15953448 0.11466632 0.86900002
-0.15766858 0.11466632 0.86900002
-0.15598197 0.11479828 0.87000006
-0.15393677 0.11466632 0.86900002
-0.15224588 0.11479828 0.87000006
-0.15020499 0.11466632 0.86900002
-0.14833908 0.11466632 0.86900002
-0.14630462 0.11453437 0.86800003
-0.14427447 0.11440242 0.86700004
-0.14241286 0.11440242 0.86700004
-0.14055125 0.11440242 0.86700004
-0.13868964 0.11440242 0.86700004
-0.13682804 0.11440242 0.86700004
-0.13496645 0.11440242 0.86700004
-0.13310483 0.11440242 0.86700004
-0.13124323 0.11440242 0.86700004
-0.12938161 0.11440242 0.86700004
-0.12752001 0.11440242 0.86700004
-0.12565841 0.11440242 0.86700004
-0.12393958 0.11453437 0.86800003
-0.12207583 0.11453437 0.86800003
-0.12035056 0.11466632 0.86900002
-0.11848468 0.11466632 0.86900002
-0.11661877 0.11466632 0.86900002
-0.11475287 0.11466632 0.86900002
-0.11288697 0.11466632 0.86900002
-0.11102106 0.11466632 0.86900002
-0.10928078 0.11479828 0.87000006
-0.10728927 0.11466632 0.86900002
-0.10530205 0.11453437 0.86800003
-0.1034383 0.11453437 0.86800003
-0.10145752 0.11440242 0.86700004
-0.099595919 0.11440242 0.86700004
-0.097734317 0.11440242 0.86700004
-0.095872708 0.11440242 0.86700004
-0.094011098 0.11440242 0.86700004
-0.092255786 0.11453437 0.86800003
-0.090496168 0.11466632 0.86900002
-0.088630266 0.11466632 0.86900002
-0.086764358 0.11466632 0.86900002
-0.084898464 0.11466632 0.86900002
-0.082841471 0.11440242 0.86700004
-0.080979861 0.11440242 0.86700004
-0.079026997 0.11427047 0.86600006
-0.077078439 0.11413851 0.86500007
-0.075134158 0.11400656 0.86400002
-0.073278993 0.11400656 0.86400002
-0.071423829 0.11400656 0.86400002
-0.069568664 0.11400656 0.86400002
-0.067713499 0.11400656 0.86400002
-0.065934561 0.11413851 0.86500007
-0.064151324 0.11427047 0.86600006
-0.062363803 0.11440242 0.86700004
-0.060502194 0.11440242 0.86700004
-0.058640588 0.11440242 0.86700004
-0.056844469 0.11453437 0.86800003
-0.054980721 0.11453437 0.86800003
-0.053055771 0.11440242 0.86700004
-0.051194165 0.11440242 0.86700004
-0.049332559 0.11440242 0.86700004
-0.047416199 0.11427047 0.86600006
-0.045556743 0.11427047 0.86600006
-0.043697283 0.11427047 0.86600006
-0.041789513 0.11413851 0.86500007
-0.039932199 0.11413851 0.86500007
-0.038118906 0.11427047 0.86600006
-0.036259446 0.11427047 0.86600006
-0.03439999 0.11427047 0.86600006
-0.03254053 0.11427047 0.86600006
-0.030681072 0.11427047 0.86600006
-0.028821612 0.11427047 0.86600006
-0.026931019 0.11413851 0.86500007
-0.025044721 0.11400656 0.86400002
-0.023189556 0.11400656 0.86400002
-0.021359086 0.11413851 0.86500007
-0.019546865 0.11440242 0.86700004
-0.017685257 0.11440242 0.86700004
-0.015841903 0.11453437 0.86800003
-0.013994253 0.11466632 0.86900002
-0.012128352 0.11466632 0.86900002
-0.010262452 0.11466632 0.86900002
-0.0083868895 0.11453437 0.86800003
-0.0065156207 0.11440242 0.86700004
-0.0046540149 0.11440242 0.86700004
-0.0027924089 0.11440242 0.86700004
-0.00092972943 0.11427047 0.86600006
0.00093080301 0.11440242 0.86700004
0.0027924089 0.11440242 0.86700004
0.0046540149 0.11440242 0.86700004
0.0065156207 0.11440242 0.86700004
0.008377227 0.11440242 0.86700004
0.010238833 0.11440242 0.86700004
0.012114395 0.11453437 0.86800003
0.01397815 0.11453437 0.86800003
0.015860153 0.11466632 0.86900002
0.017726054 0.11466632 0.86900002
0.019591954 0.11466632 0.86900002
0.021433162 0.11453437 0.86800003
0.023323754 0.11466632 0.86900002
0.025189655 0.11466632 0.86900002
0.027055556 0.11466632 0.86900002
0.028921453 0.11466632 0.86900002
0.030858213 0.11493023 0.87100005
0.032765981 0.11506218 0.87200004
0.034638327 0.11506218 0.87200004
0.036510665 0.11506218 0.87200004
0.038338993 0.11493023 0.87100005
0.040163022 0.11479828 0.87000006
0.042031072 0.11479828 0.87000006
0.043848656 0.11466632 0.86900002
0.045714557 0.11466632 0.86900002
0.047580458 0.11466632 0.86900002
0.049446359 0.11466632 0.86900002
0.051312257 0.11466632 0.86900002
0.053178158 0.11466632 0.86900002
0.055044062 0.11466632 0.86900002
0.05697545 0.11479828 0.87000006
0.058911134 0.11493023 0.87100005
0.060851112 0.11506218 0.87200004
0.062723458 0.11506218 0.87200004
0.064595789 0.11506218 0.87200004
0.066468135 0.11506218 0.87200004
0.068418853 0.11519413 0.87300003
0.070212826 0.11506218 0.87200004
0.072085157 0.11506218 0.87200004
0.073957503 0.11506218 0.87200004
0.075829849 0.11506218 0.87200004
0.077613086 0.11493023 0.87100005
0.079574525 0.11506218 0.87200004
0.081446871 0.11506218 0.87200004
0.083414763 0.11519413 0.87300003
0.085289255 0.11519413 0.87300003
0.087263577 0.11532608 0.87400001
0.089140221 0.11532608 0.87400001
0.090912722 0.11519413 0.87300003
0.092787206 0.11519413 0.87300003
0.09466169 0.11519413 0.87300003
0.096536182 0.11519413 0.87300003
0.098636135 0.11545803 0.87500006
0.10051492 0.11545803 0.87500006
0.10239369 0.11545803 0.87500006
0.10427248 0.11545803 0.87500006
0.10615127 0.11545803 0.87500006
0.10803005 0.11545803 0.87500006
0.10990883 0.11545803 0.87500006
0.11165985 0.11532608 0.87400001
0.11353649 0.11532608 0.87400001
0.11514903 0.11506218 0.87200004
0.11715557 0.11519413 0.87300003
0.11903006 0.11519413 0.87300003
0.12104303 0.11532608 0.87400001
0.12291966 0.11532608 0.87400001
0.1249391 0.11545803 0.87500006
0.12681788 0.11545803 0.87500006
0.12869667 0.11545803 0.87500006
0.13057545 0.11545803 0.87500006
0.13230285 0.11532608 0.87400001
0.13402598 0.11519413 0.87300003
0.13590047 0.11519413 0.87300003
0.13777494 0.11519413 0.87300003
0.13964944 0.11519413 0.87300003
0.14168604 0.11532608 0.87400001
0.14356267 0.11532608 0.87400001
0.14560573 0.11545803 0.87500006
0.14782161 0.11572193 0.87700003
0.14987539 0.11585389 0.87800002
0.15176061 0.11585389 0.87800002
0.15364583 0.11585389 0.87800002
0.15553105 0.11585389 0.87800002
0.15723699 0.11572193 0.87700003
0.15912007 0.11572193 0.87700003
0.16081958 0.11558998 0.87600005
0.16288623 0.11572193 0.87700003
0.16495718 0.11585389 0.87800002
0.16684242 0.11585389 0.87800002
0.16872762 0.11585389 0.87800002
0.17080718 0.11598585 0.87900007
0.17269455 0.11598585 0.87900007
0.17438331 0.11585389 0.87800002
0.17626853 0.11585389 0.87800002
0.17815375 0.11585389 0.87800002
0.18024406 0.11598585 0.87900007
0.18213142 0.11598585 0.87900007
0.18422814 0.1161178 0.88000005
0.18611765 0.1161178 0.88000005
0.18800718 0.1161178 0.88000005
0.19011249 0.11624975 0.88100004
0.19200416 0.11624975 0.88100004
0.19389582 0.11624975 0.88100004
0.19600973 0.1163817 0.88200003
0.19790353 0.1163817 0.88200003
0.20002386 0.11651365 0.88300002
0.20214851 0.1166456 0.88400006
0.20427744 0.11677755 0.88500005
0.2061777 0.11677755 0.88500005
0.20807795 0.11677755 0.88500005
0.20997821 0.11677755 0.88500005
0.21187846 0.11677755 0.88500005
0.21377872 0.11677755 0.88500005
0.21519154 0.11651365 0.88300002
0.21708751 0.11651365 0.88300002
0.21923149 0.1166456 0.88400006
0.22112961 0.1166456 0.88400006
0.22328 0.11677755 0.88500005
0.22518024 0.11677755 0.88500005
0.22733709 0.1169095 0.88600004
0.22949822 0.11704145 0.88700002
0.23166367 0.11717341 0.88800007
0.23357037 0.11717341 0.88800007
0.23574224 0.11730537 0.88900006
0.23765108 0.11730537 0.88900006
0.2395599 0.11730537 0.88900006
0.24146877 0.11730537 0.88900006
0.24365136 0.11743732 0.89000005
0.24583828 0.11756927 0.89100003
0.24802946 0.11770122 0.89200002
0.24994476 0.11770122 0.89200002
0.2521424 0.11783317 0.89300007
0.25405985 0.11783317 0.89300007
0.2556906 0.11770122 0.89200002
0.2573171 0.11756927 0.89100003
0.25923026 0.11756927 0.89100003
0.26143646 0.11770122 0.89200002
0.26335177 0.11770122 0.89200002
0.26556444 0.11783317 0.89300007
0.26838046 0.11822902 0.89600003
0.27573454 0.12060416 0.91400003
0.28164679 0.12231954 0.92700005
0.28700295 0.12377101 0.93800002
0.2902495 0.12429882 0.94200003
0.29258239 0.12443077 0.94300002
0.29460719 0.12443077 0.94300002
0.29663199 0.12443077 0.94300002
0.2989735 0.12456273 0.94400007
0.3013193 0.12469468 0.94500005
0.30431139 0.12509054 0.94800007
0.30667007 0.12522249 0.94900006
0.30968362 0.12561834 0.95200002
0.31271008 0.1260142 0.95500004
0.31509024 0.12614615 0.95600003
0.31813815 0.126542 0.95900005
0.32153288 0.12706982 0.96300006
0.32427266 0.12733372 0.96500003
nan nan nan
nan nan nan
nan nan nan
nan nan nan
0.30550414 0.11624975 0.88100004
0.30634907 0.11585389 0.87800002
0.30718109 0.11545803 0.87500006
0.30870667 0.11532608 0.87400001
0.30916187 0.11479828 0.87000006
0.3092424 0.11413851 0.86500007
0.30894178 0.1133468 0.85900003
0.30789179 0.11229118 0.85100001
0.30826327 0.11176338 0.84700006
0.30861756 0.11123557 0.84300005
0.30932292 0.11083971 0.84000003
0.30927458 0.11017995 0.83500004
0.3103224 0.10991605 0.83300006
0.31098697 0.10952019 0.83000004
0.31163862 0.10912433 0.82700002
0.3126564 0.10886043 0.82500005
0.31328446 0.10846458 0.82200003
0.31428289 0.10820068 0.82000005
0.31565818 0.10806872 0.81900007
0.31625402 0.10767286 0.81600004
0.31683695 0.10727701 0.81300002
0.31740704 0.10688116 0.81000006
0.31835824 0.10661725 0.80800003
0.3189047 0.10622139 0.80500007
0.31983659 0.10595749 0.80300003
0.32075986 0.10569359 0.80100006
0.32167456 0.10542968 0.79900002
0.32258067 0.10516578 0.79700005
0.32347816 0.10490187 0.79500002
0.3239581 0.10450602 0.79200006
0.32483628 0.10424211 0.79000002
0.32570592 0.10397821 0.78800005
0.32698241 0.10384626 0.78700006
0.32741937 0.1034504 0.78400004
0.32868296 0.10331845 0.78300005
0.32909846 0.10292259 0.78000003
0.32950103 0.10252673 0.77700001
0.33031696 0.10226283 0.77500004
0.33069593 0.10186697 0.77200001
0.33192304 0.10173502 0.77100003
0.33271325 0.10147112 0.76900005
0.33436441 0.10147112 0.76900005
0.33557862 0.10133916 0.76800001
0.33678856 0.10120721 0.76700002
0.33799419 0.10107526 0.76600003
0.33963895 0.10107526 0.76600003
0.34128368 0.10107526 0.76600003
0.34248075 0.10094331 0.76500005
0.34412333 0.10094331 0.76500005
0.34621793 0.10107526 0.76600003
0.34740853 0.10094331 0.76500005
0.34905115 0.10094331 0.76500005
0.35023531 0.10081136 0.76400006
0.35141516 0.10067941 0.76300001
0.35305345 0.10067941 0.76300001
0.35422689 0.10054746 0.76200002
0.35539606 0.1004155 0.76100004
0.35609174 0.1001516 0.75900006
0.35725012 0.10001964 0.75800002
0.35793078 0.099755742 0.75600004
0.35907847 0.099623792 0.75500005
0.36022183 0.099491835 0.75400001
0.36184078 0.099491835 0.75400001
0.36297774 0.099359885 0.75300002
0.36459455 0.099359885 0.75300002
0.36621138 0.099359885 0.75300002
0.36782822 0.099359885 0.75300002
0.37042633 0.099623792 0.75500005
0.37254021 0.099755742 0.75600004
0.37465841 0.099887691 0.75700003
0.3767809 0.10001964 0.75800002
0.37890768 0.1001516 0.75900006
0.38103876 0.10028355 0.76000005
0.38267061 0.10028355 0.76000005
0.38379684 0.1001516 0.75900006
0.38542655 0.1001516 0.75900006
0.38654625 0.10001964 0.75800002
0.38817382 0.10001964 0.75800002
0.39031568 0.1001516 0.75900006
nan nan nan
nan nan nan
nan nan nan
nan nan nan
nan nan nan
nan nan nan
nan nan nan
nan nan nan
nan nan nan
nan nan nan
nan nan nan
nan nan nan
nan nan nan
nan nan nan
nan nan nan
nan nan nan
nan nan nan
nan nan nan
nan nan nan
nan nan nan
nan nan nan
nan nan nan
nan nan nan
nan nan nan
nan nan nan
nan nan nan
nan nan nan
nan nan nan
nan nan nan
nan nan nan
nan nan nan
nan nan nan
nan nan nan
nan nan nan
nan nan nan
nan nan nan
nan nan nan
nan nan nan
nan nan nan
nan nan nan
-0.35768279 0.11197285 0.83500004
nan nan nan
nan nan nan
-0.3577891 0.11371614 0.84800005
nan nan nan
nan nan nan
nan nan nan
nan nan nan
nan nan nan
nan nan nan
nan nan nan
nan nan nan
nan nan nan
nan nan nan
nan nan nan
nan nan nan
nan nan nan
nan nan nan
nan nan nan
nan nan nan
nan nan nan
nan nan nan
nan nan nan
nan nan nan
nan nan nan
nan nan nan
nan nan nan
nan nan nan
nan nan nan
nan nan nan
nan nan nan
nan nan nan
nan nan nan
nan nan nan
nan nan nan
nan nan nan
nan nan nan
nan nan nan
nan nan nan
nan nan nan
nan nan nan
nan nan nan
-0.29726112 0.11787322 0.87900007
nan nan nan
-0.29382026 0.11800732 0.88000005
-0.29093552 0.11760502 0.87700003
-0.28839326 0.11733682 0.87500006
-0.28520468 0.11680042 0.87100005
-0.28235862 0.11639813 0.86800003
-0.28049484 0.11639813 0.86800003
-0.27574205 0.11519123 0.85900003
nan nan nan
nan nan nan
nan nan nan
-0.25336844 0.10875447 0.81100005
-0.25286815 0.10929087 0.81500006
-0.25204253 0.10969316 0.81800002
-0.25151005 0.11022956 0.82200003
nan nan nan
nan nan nan
nan nan nan
nan nan nan
nan nan nan
nan nan nan
nan nan nan
nan nan nan
-0.24021159 0.11237515 0.83800006
-0.23926575 0.11277744 0.84100002
-0.23774233 0.11291154 0.84200007
-0.23621462 0.11304565 0.84300005
-0.23468259 0.11317974 0.84400004
-0.23287039 0.11317974 0.84400004
-0.23078439 0.11304565 0.84300005
-0.22897433 0.11304565 0.84300005
-0.22716424 0.11304565 0.84300005
-0.22535416 0.11304565 0.84300005
-0.22327894 0.11291154 0.84200007
-0.221471 0.11291154 0.84200007
-0.21966308 0.11291154 0.84200007
-0.21785514 0.11291154 0.84200007
-0.21579063 0.11277744 0.84100002
-0.21373039 0.11264335 0.84000003
-0.21192677 0.11264335 0.84000003
-0.20987301 0.11250925 0.83900005
-0.20782351 0.11237515 0.83800006
-0.20553246 0.11210695 0.83600003
-0.20349371 0.11197285 0.83500004
-0.20194238 0.11210695 0.83600003
-0.20062616 0.11237515 0.83800006
-0.19858955 0.11224104 0.83700001
-0.19655725 0.11210695 0.83600003
-0.1947622 0.11210695 0.83600003
-0.19296716 0.11210695 0.83600003
-0.19117211 0.11210695 0.83600003
-0.18983012 0.11237515 0.83800006
-0.18847956 0.11264335 0.84000003
-0.18778709 0.11331384 0.84500003
-0.18685307 0.11385024 0.84900004
-0.18611979 0.11452074 0.85400003
-0.18536507 0.11519123 0.85900003
-0.18437521 0.11572763 0.86300004
-0.18294519 0.11599583 0.86500007
-0.18108788 0.11599583 0.86500007
-0.17943779 0.11612993 0.86600006
-0.17778337 0.11626402 0.86700004
-0.17592177 0.11626402 0.86700004
-0.17426091 0.11639813 0.86800003
-0.17219855 0.11626402 0.86700004
-0.16994402 0.11599583 0.86500007
-0.16808671 0.11599583 0.86500007
-0.1662294 0.11599583 0.86500007
-0.16418205 0.11586172 0.86400002
-0.16232689 0.11586172 0.86400002
-0.16047172 0.11586172 0.86400002
-0.15898374 0.11612993 0.86600006
-0.1573057 0.11626402 0.86700004
-0.15562339 0.11639813 0.86800003
-0.15375963 0.11639813 0.86800003
-0.15189588 0.11639813 0.86800003
-0.14985929 0.11626402 0.86700004
-0.14799768 0.11626402 0.86700004
-0.14596753 0.11612993 0.86600006
-0.14394166 0.11599583 0.86500007
-0.14192007 0.11586172 0.86400002
-0.14022703 0.11599583 0.86500007
-0.13820975 0.11586172 0.86400002
-0.13635458 0.11586172 0.86400002
-0.13449943 0.11586172 0.86400002
-0.13264427 0.11586172 0.86400002
-0.1307891 0.11586172 0.86400002
-0.12893392 0.11586172 0.86400002
-0.12707876 0.11586172 0.86400002
-0.12536854 0.11599583 0.86500007
-0.12365401 0.11612993 0.86600006
-0.12179455 0.11612993 0.86600006
-0.12007358 0.11626402 0.86700004
-0.11834833 0.11639813 0.86800003
-0.11648457 0.11639813 0.86800003
-0.11462082 0.11639813 0.86800003
-0.11262716 0.11626402 0.86700004
-0.11076555 0.11626402 0.86700004
-0.10902955 0.11639813 0.86800003
-0.10704235 0.11626402 0.86700004
-0.10505942 0.11612993 0.86600006
-0.10308079 0.11599583 0.86500007
-0.10110646 0.11586172 0.86400002
-0.0992513 0.11586172 0.86400002
-0.097396135 0.11586172 0.86400002
-0.095540963 0.11586172 0.86400002
-0.093685798 0.11586172 0.86400002
-0.092043214 0.11612993 0.86600006
-0.090183757 0.11612993 0.86600006
-0.088426284 0.11626402 0.86700004
-0.086564675 0.11626402 0.86700004
-0.084703073 0.11626402 0.86700004
-0.082745917 0.11612993 0.86600006
-0.080699652 0.11586172 0.86400002
-0.078844488 0.11586172 0.86400002
-0.076900221 0.11572763 0.86300004
-0.075047202 0.11572763 0.86300004
-0.073109366 0.11559353 0.86200005
-0.071258493 0.11559353 0.86200005
-0.069407634 0.11559353 0.86200005
-0.067556761 0.11559353 0.86200005
-0.065705888 0.11559353 0.86200005
-0.063855015 0.11559353 0.86200005
-0.062076081 0.11572763 0.86300004
-0.060292844 0.11586172 0.86400002
-0.058437679 0.11586172 0.86400002
-0.05658251 0.11586172 0.86400002
-0.054727353 0.11586172 0.86400002
-0.052872185 0.11586172 0.86400002
-0.05101702 0.11586172 0.86400002
-0.049161859 0.11586172 0.86400002
-0.04730669 0.11586172 0.86400002
-0.045451529 0.11586172 0.86400002
-0.043596361 0.11586172 0.86400002
-0.04169289 0.11572763 0.86300004
-0.039839871 0.11572763 0.86300004
-0.037986856 0.11572763 0.86300004
-0.036175705 0.11586172 0.86400002
-0.034320541 0.11586172 0.86400002
-0.032465376 0.11586172 0.86400002
-0.030610213 0.11586172 0.86400002
-0.028721767 0.11572763 0.86300004
-0.026868751 0.11572763 0.86300004
-0.025015734 0.11572763 0.86300004
-0.023162717 0.11572763 0.86300004
-0.021334391 0.11586172 0.86400002
-0.019479226 0.11586172 0.86400002
-0.017644461 0.11599583 0.86500007
-0.015805401 0.11612993 0.86600006
-0.013962045 0.11626402 0.86700004
-0.012100439 0.11626402 0.86700004
-0.010238833 0.11626402 0.86700004
-0.008377227 0.11626402 0.86700004
-0.0065081059 0.11612993 0.86600006
-0.0046486473 0.11612993 0.86600006
-0.0027859674 0.11599583 0.86500007
-0.00092865585 0.11599583 0.86500007
0.00092865585 0.11599583 0.86500007
0.0027891882 0.11612993 0.86600006
0.0046540149 0.11626402 0.86700004
0.0065081059 0.11612993 0.86600006
0.008377227 0.11626402 0.86700004
0.010238833 0.11626402 0.86700004
0.012100439 0.11626402 0.86700004
0.013962045 0.11626402 0.86700004
0.015823651 0.11626402 0.86700004
0.017685257 0.11626402 0.86700004
0.019569408 0.11639813 0.86800003
0.02140847 0.11626402 0.86700004
0.023296915 0.11639813 0.86800003
0.025160668 0.11639813 0.86800003
0.027055556 0.11653222 0.86900002
0.028921453 0.11653222 0.86900002
0.030822786 0.11666632 0.87000006
0.032690831 0.11666632 0.87000006
0.034598604 0.11680042 0.87100005
0.036468796 0.11680042 0.87100005
0.038294975 0.11666632 0.87000006
0.040163022 0.11666632 0.87000006
0.041982759 0.11653222 0.86900002
0.043848656 0.11653222 0.86900002
0.045714557 0.11653222 0.86900002
0.047525704 0.11639813 0.86800003
0.049389459 0.11639813 0.86800003
0.051312257 0.11653222 0.86900002
0.053178158 0.11653222 0.86900002
0.055044062 0.11653222 0.86900002
0.056909956 0.11653222 0.86900002
0.058843497 0.11666632 0.87000006
0.06078133 0.11680042 0.87100005
0.062651522 0.11680042 0.87100005
0.064595789 0.11693452 0.87200004
0.066468135 0.11693452 0.87200004
0.06834048 0.11693452 0.87200004
0.070212826 0.11693452 0.87200004
0.072002493 0.11680042 0.87100005
0.073957503 0.11693452 0.87200004
0.075829849 0.11693452 0.87200004
0.077613086 0.11680042 0.87100005
0.079574525 0.11693452 0.87200004
0.081446871 0.11693452 0.87200004
0.083319217 0.11693452 0.87200004
0.085191555 0.11693452 0.87200004
0.087063894 0.11693452 0.87200004
0.088936239 0.11693452 0.87200004
0.090808585 0.11693452 0.87200004
