# .PCD v0.7 - Point Cloud Data file format
VERSION 0.7
FIELDS x y z
SIZE 4 4 4
TYPE F F F
COUNT 1 1 1
WIDTH 1496
HEIGHT 1
VIEWPOINT 0 0 0 1 0 0 0
POINTS 1496
DATA ascii
0.19062459 -0.063047439 -0.60600001
0.19192576 -0.063047439 -0.60600001
0.19354585 -0.063151486 -0.60700005
0.19484918 -0.063151486 -0.60700005
0.19647565 -0.063255519 -0.60800004
0.19778115 -0.063255519 -0.60800004
0.19908662 -0.063255519 -0.60800004
0.20039213 -0.063255519 -0.60800004
0.20202933 -0.063359559 -0.60900003
0.20300309 -0.063255519 -0.60800004
0.20397255 -0.063151486 -0.60700005
0.20527588 -0.063151486 -0.60700005
0.20657922 -0.063151486 -0.60700005
0.20788255 -0.063151486 -0.60700005
0.20918591 -0.063151486 -0.60700005
0.21048924 -0.063151486 -0.60700005
0.21179259 -0.063151486 -0.60700005
0.21344697 -0.063255519 -0.60800004
0.21475248 -0.063255519 -0.60800004
0.21605796 -0.063255519 -0.60800004
0.21736343 -0.063255519 -0.60800004
0.21866892 -0.063255519 -0.60800004
0.2199744 -0.063255519 -0.60800004
0.2212799 -0.063255519 -0.60800004
0.22258538 -0.063255519 -0.60800004
0.22352263 -0.063151486 -0.60700005
0.22482596 -0.063151486 -0.60700005
0.22612931 -0.063151486 -0.60700005
0.22743265 -0.063151486 -0.60700005
0.2291128 -0.063255519 -0.60800004
0.23003933 -0.063151486 -0.60700005
0.23172379 -0.063255519 -0.60800004
0.23302928 -0.063255519 -0.60800004
0.23433475 -0.063255519 -0.60800004
0.23564026 -0.063255519 -0.60800004
0.23694573 -0.063255519 -0.60800004
0.23825121 -0.063255519 -0.60800004
0.2399507 -0.063359559 -0.60900003
0.24125834 -0.063359559 -0.60900003
0.24256597 -0.063359559 -0.60900003
0.24427405 -0.063463598 -0.61000001
0.24558383 -0.063463598 -0.61000001
0.24689361 -0.063463598 -0.61000001
0.24820338 -0.063463598 -0.61000001
0.24910414 -0.063359559 -0.60900003
0.25041178 -0.063359559 -0.60900003
0.25171942 -0.063359559 -0.60900003
0.25261155 -0.063255519 -0.60800004
0.25349945 -0.063151486 -0.60700005
0.25480276 -0.063151486 -0.60700005
0.25610611 -0.063151486 -0.60700005
0.25783351 -0.063255519 -0.60800004
0.259139 -0.063255519 -0.60800004
0.26087284 -0.063359559 -0.60900003
0.26261097 -0.063463598 -0.61000001
0.26392075 -0.063463598 -0.61000001
0.26566532 -0.063567631 -0.611
0.26697728 -0.063567631 -0.611
0.2678501 -0.063463598 -0.61000001
0.26871863 -0.063359559 -0.60900003
0.2695829 -0.063255519 -0.60800004
0.27044281 -0.063151486 -0.60700005
0.27129847 -0.063047439 -0.60600001
0.2730495 -0.063151486 -0.60700005
0.27435285 -0.063151486 -0.60700005
0.27565619 -0.063151486 -0.60700005
0.27695954 -0.063151486 -0.60700005
0.27826288 -0.063151486 -0.60700005
0.2791056 -0.063047439 -0.60600001
0.2804068 -0.063047439 -0.60600001
0.28077829 -0.062839366 -0.60400003
0.28114116 -0.062631287 -0.60200006
0.2819646 -0.062527247 -0.60100001
0.28278375 -0.062423211 -0.60000002
0.28407204 -0.062423211 -0.60000002
0.28536037 -0.062423211 -0.60000002
0.28664866 -0.062423211 -0.60000002
0.28841686 -0.062527247 -0.60100001
0.29067144 -0.062735327 -0.60300004
0.29245037 -0.062839366 -0.60400003
0.29326093 -0.062735327 -0.60300004
0.29504415 -0.062839366 -0.60400003
0.2968317 -0.062943399 -0.60500002
0.2986235 -0.063047439 -0.60600001
0.30041963 -0.063151486 -0.60700005
0.30172297 -0.063151486 -0.60700005
0.30352551 -0.063255519 -0.60800004
0.304831 -0.063255519 -0.60800004
0.30664 -0.063359559 -0.60900003
0.30794764 -0.063359559 -0.60900003
0.30925527 -0.063359559 -0.60900003
0.31056288 -0.063359559 -0.60900003
0.31187055 -0.063359559 -0.60900003
0.31266394 -0.063255519 -0.60800004
nan nan nan
nan nan nan
nan nan nan
nan nan nan
nan nan nan
nan nan nan
nan nan nan
nan nan nan
nan nan nan
nan nan nan
nan nan nan
nan nan nan
nan nan nan
nan nan nan
nan nan nan
nan nan nan
nan nan nan
nan nan nan
nan nan nan
nan nan nan
nan nan nan
nan nan nan
nan nan nan
nan nan nan
nan nan nan
nan nan nan
nan nan nan
nan nan nan
nan nan nan
nan nan nan
nan nan nan
nan nan nan
nan nan nan
nan nan nan
nan nan nan
nan nan nan
nan nan nan
nan nan nan
nan nan nan
nan nan nan
nan nan nan
nan nan nan
nan nan nan
nan nan nan
nan nan nan
nan nan nan
nan nan nan
nan nan nan
nan nan nan
nan nan nan
nan nan nan
nan nan nan
nan nan nan
nan nan nan
nan nan nan
nan nan nan
nan nan nan
nan nan nan
nan nan nan
nan nan nan
-0.22662637 -0.062437285 -0.588
-0.22498056 -0.062331103 -0.58700001
-0.22372015 -0.062331103 -0.58700001
-0.22245976 -0.062331103 -0.58700001
-0.22157618 -0.062437285 -0.588
-0.22031365 -0.062437285 -0.588
-0.21979618 -0.06264966 -0.59000003
-0.21889974 -0.062755845 -0.59100002
-0.217999 -0.062862031 -0.59200001
-0.21636178 -0.062755845 -0.59100002
-0.21472885 -0.06264966 -0.59000003
-0.21310021 -0.062543474 -0.58900005
-0.21183553 -0.062543474 -0.58900005
-0.21057083 -0.062543474 -0.58900005
-0.20930615 -0.062543474 -0.58900005
-0.20804146 -0.062543474 -0.58900005
-0.20712782 -0.06264966 -0.59000003
-0.20620991 -0.062755845 -0.59100002
-0.20528768 -0.062862031 -0.59200001
-0.20401655 -0.062862031 -0.59200001
-0.20274541 -0.062862031 -0.59200001
-0.20181464 -0.062968224 -0.59300005
-0.20054135 -0.062968224 -0.59300005
-0.198596 -0.062755845 -0.59100002
-0.19699314 -0.06264966 -0.59000003
-0.19572629 -0.06264966 -0.59000003
-0.19478905 -0.062755845 -0.59100002
-0.19352005 -0.062755845 -0.59100002
-0.19192578 -0.06264966 -0.59000003
-0.19065894 -0.06264966 -0.59000003
-0.1893921 -0.06264966 -0.59000003
-0.18812528 -0.06264966 -0.59000003
nan nan nan
nan nan nan
nan nan nan
nan nan nan
nan nan nan
nan nan nan
nan nan nan
nan nan nan
nan nan nan
nan nan nan
nan nan nan
-0.1738025 -0.062968224 -0.59300005
-0.17223828 -0.062862031 -0.59200001
-0.17096713 -0.062862031 -0.59200001
-0.17026931 -0.063074403 -0.59400004
-0.1692784 -0.063180588 -0.59500003
-0.16800082 -0.063180588 -0.59500003
-0.16644305 -0.063074403 -0.59400004
-0.16516761 -0.063074403 -0.59400004
-0.16389219 -0.063074403 -0.59400004
-0.16261676 -0.063074403 -0.59400004
-0.16134134 -0.063074403 -0.59400004
-0.1600659 -0.063074403 -0.59400004
-0.15852316 -0.062968224 -0.59300005
-0.15778024 -0.063180588 -0.59500003
-0.15729176 -0.063499153 -0.59800005
-0.15600775 -0.063499153 -0.59800005
-0.15472372 -0.063499153 -0.59800005
-0.15343972 -0.063499153 -0.59800005
-0.1521557 -0.063499153 -0.59800005
-0.15087168 -0.063499153 -0.59800005
-0.14958768 -0.063499153 -0.59800005
-0.14780764 -0.063286774 -0.59600002
-0.14652793 -0.063286774 -0.59600002
-0.1450045 -0.063180588 -0.59500003
-0.14348538 -0.063074403 -0.59400004
-0.14220996 -0.063074403 -0.59400004
-0.14069727 -0.062968224 -0.59300005
-0.139424 -0.062968224 -0.59300005
-0.13838367 -0.063074403 -0.59400004
-0.13756989 -0.063286774 -0.59600002
-0.13651884 -0.06339296 -0.597
-0.13523696 -0.06339296 -0.597
-0.13395511 -0.06339296 -0.597
-0.13267325 -0.06339296 -0.597
-0.13139138 -0.06339296 -0.597
-0.1301095 -0.06339296 -0.597
-0.12882763 -0.06339296 -0.597
-0.12733212 -0.063286774 -0.59600002
-0.12605241 -0.063286774 -0.59600002
-0.12477268 -0.063286774 -0.59600002
-0.12349297 -0.063286774 -0.59600002
-0.12221325 -0.063286774 -0.59600002
-0.12093353 -0.063286774 -0.59600002
-0.11965381 -0.063286774 -0.59600002
-0.11837409 -0.063286774 -0.59600002
nan nan nan
-0.11562033 -0.063180588 -0.59500003
nan nan nan
nan nan nan
nan nan nan
nan nan nan
nan nan nan
-0.10813633 -0.063286774 -0.59600002
-0.1070359 -0.06339296 -0.597
-0.10575403 -0.06339296 -0.597
-0.10429717 -0.063286774 -0.59600002
-0.10301746 -0.063286774 -0.59600002
-0.10173774 -0.063286774 -0.59600002
-0.10045801 -0.063286774 -0.59600002
-0.099011891 -0.063180588 -0.59500003
-0.097570054 -0.063074403 -0.59400004
-0.096132524 -0.062968224 -0.59300005
-0.094859242 -0.062968224 -0.59300005
-0.093743779 -0.063074403 -0.59400004
-0.092779696 -0.063286774 -0.59600002
-0.091499977 -0.063286774 -0.59600002
-0.090523012 -0.063499153 -0.59800005
-0.089238994 -0.063499153 -0.59800005
-0.087954983 -0.063499153 -0.59800005
-0.086670965 -0.063499153 -0.59800005
-0.085386954 -0.063499153 -0.59800005
-0.083962291 -0.06339296 -0.597
-0.082680419 -0.06339296 -0.597
-0.081262216 -0.063286774 -0.59600002
-0.079982497 -0.063286774 -0.59600002
-0.078702778 -0.063286774 -0.59600002
-0.07729315 -0.063180588 -0.59500003
-0.076143332 -0.063286774 -0.59600002
-0.074989222 -0.06339296 -0.597
-0.073707357 -0.06339296 -0.597
-0.072425485 -0.06339296 -0.597
-0.07114362 -0.06339296 -0.597
-0.069978781 -0.063499153 -0.59800005
-0.06869477 -0.063499153 -0.59800005
-0.067298017 -0.06339296 -0.597
-0.066016153 -0.06339296 -0.597
-0.06473428 -0.06339296 -0.597
-0.063558713 -0.063499153 -0.59800005
-0.062274694 -0.063499153 -0.59800005
-0.060888685 -0.06339296 -0.597
-0.059606817 -0.06339296 -0.597
-0.058422655 -0.063499153 -0.59800005
-0.057138637 -0.063499153 -0.59800005
-0.055854622 -0.063499153 -0.59800005
-0.054479346 -0.06339296 -0.597
-0.053108376 -0.063286774 -0.59600002
-0.051741697 -0.063180588 -0.59500003
-0.050633747 -0.06339296 -0.597
-0.049351878 -0.06339296 -0.597
-0.048070017 -0.06339296 -0.597
-0.046866525 -0.063499153 -0.59800005
-0.04550628 -0.06339296 -0.597
-0.044224411 -0.06339296 -0.597
-0.043014482 -0.063499153 -0.59800005
-0.041730467 -0.063499153 -0.59800005
-0.040514085 -0.063605331 -0.59900004
-0.039227922 -0.063605331 -0.59900004
-0.037941765 -0.063605331 -0.59900004
-0.036655601 -0.063605331 -0.59900004
-0.035369441 -0.063605331 -0.59900004
-0.034083281 -0.063605331 -0.59900004
-0.032797117 -0.063605331 -0.59900004
-0.031458352 -0.063499153 -0.59800005
-0.030174335 -0.063499153 -0.59800005
-0.028793698 -0.063286774 -0.59600002
-0.027513977 -0.063286774 -0.59600002
-0.026234258 -0.063286774 -0.59600002
-0.024954537 -0.063286774 -0.59600002
-0.023674818 -0.063286774 -0.59600002
-0.022395097 -0.063286774 -0.59600002
-0.021150807 -0.06339296 -0.597
nan nan nan
nan nan nan
nan nan nan
nan nan nan
-0.014864936 -0.063923895 -0.60200006
-0.013594878 -0.064030081 -0.60300004
-0.012300127 -0.064030081 -0.60300004
-0.010987126 -0.063923895 -0.60200006
-0.0096945232 -0.063923895 -0.60200006
-0.008415876 -0.064030081 -0.60300004
-0.0071211262 -0.064030081 -0.60300004
-0.0058167139 -0.063923895 -0.60200006
-0.0045241108 -0.063923895 -0.60200006
-0.0032207717 -0.063711517 -0.60000002
-0.0019324629 -0.063711517 -0.60000002
-0.00064415432 -0.063711517 -0.60000002
0.00064415432 -0.063711517 -0.60000002
0.0019324629 -0.063711517 -0.60000002
0.0032261393 -0.063817702 -0.60100001
0.0045241108 -0.063923895 -0.60200006
0.0058167139 -0.063923895 -0.60200006
0.0071211262 -0.064030081 -0.60300004
0.008415876 -0.064030081 -0.60300004
0.0097106276 -0.064030081 -0.60300004
0.011005377 -0.064030081 -0.60300004
0.012279729 -0.063923895 -0.60200006
0.013572332 -0.063923895 -0.60200006
0.014864936 -0.063923895 -0.60200006
0.01615754 -0.063923895 -0.60200006
0.017421154 -0.063817702 -0.60100001
0.01871161 -0.063817702 -0.60100001
0.019968783 -0.063711517 -0.60000002
0.021221666 -0.063605331 -0.59900004
0.022470251 -0.063499153 -0.59800005
0.023754265 -0.063499153 -0.59800005
0.024996407 -0.06339296 -0.597
0.026278274 -0.06339296 -0.597
0.027606307 -0.063499153 -0.59800005
0.028890323 -0.063499153 -0.59800005
0.030224795 -0.063605331 -0.59900004
0.031510957 -0.063605331 -0.59900004
0.032906622 -0.063817702 -0.60100001
0.034253981 -0.063923895 -0.60200006
0.035487533 -0.063817702 -0.60100001
0.036839187 -0.063923895 -0.60200006
0.038131792 -0.063923895 -0.60200006
0.039424393 -0.063923895 -0.60200006
0.040649358 -0.063817702 -0.60100001
0.041800249 -0.063605331 -0.59900004
0.04308641 -0.063605331 -0.59900004
0.044446647 -0.063711517 -0.60000002
0.04565873 -0.063605331 -0.59900004
0.047023267 -0.063711517 -0.60000002
0.048311576 -0.063711517 -0.60000002
0.049682546 -0.063817702 -0.60100001
0.050973002 -0.063817702 -0.60100001
0.052176502 -0.063711517 -0.60000002
0.053464811 -0.063711517 -0.60000002
0.054753114 -0.063711517 -0.60000002
0.056041423 -0.063711517 -0.60000002
0.057329733 -0.063711517 -0.60000002
0.058618043 -0.063711517 -0.60000002
0.059806507 -0.063605331 -0.59900004
0.061194658 -0.063711517 -0.60000002
0.062482968 -0.063711517 -0.60000002
0.063771278 -0.063711517 -0.60000002
0.065059587 -0.063711517 -0.60000002
0.066237316 -0.063605331 -0.59900004
0.067523479 -0.063605331 -0.59900004
0.06869477 -0.063499153 -0.59800005
0.069978781 -0.063499153 -0.59800005
0.07114362 -0.06339296 -0.597
0.072425485 -0.06339296 -0.597
0.073830828 -0.063499153 -0.59800005
0.075114839 -0.063499153 -0.59800005
0.076398849 -0.063499153 -0.59800005
0.077812769 -0.063605331 -0.59900004
0.079098932 -0.063605331 -0.59900004
0.080519289 -0.063711517 -0.60000002
0.081807598 -0.063711517 -0.60000002
0.083095901 -0.063711517 -0.60000002
0.08438421 -0.063711517 -0.60000002
0.08567252 -0.063711517 -0.60000002
0.086815901 -0.063605331 -0.59900004
0.088102065 -0.063605331 -0.59900004
0.089388222 -0.063605331 -0.59900004
0.090674385 -0.063605331 -0.59900004
0.091960549 -0.063605331 -0.59900004
0.093246713 -0.063605331 -0.59900004
0.094532862 -0.063605331 -0.59900004
0.095819026 -0.063605331 -0.59900004
0.0972673 -0.063711517 -0.60000002
0.09855561 -0.063711517 -0.60000002
0.099843919 -0.063711517 -0.60000002
0.10096368 -0.063605331 -0.59900004
0.10224984 -0.063605331 -0.59900004
0.103536 -0.063605331 -0.59900004
0.10482216 -0.063605331 -0.59900004
0.10610832 -0.063605331 -0.59900004
nan nan nan
0.10868064 -0.063605331 -0.59900004
0.10996681 -0.063605331 -0.59900004
0.1114387 -0.063711517 -0.60000002
nan nan nan
nan nan nan
0.11472709 -0.06339296 -0.597
0.11600897 -0.06339296 -0.597
0.11729083 -0.06339296 -0.597
0.1185727 -0.06339296 -0.597
0.11985457 -0.06339296 -0.597
0.12113643 -0.06339296 -0.597
0.12262337 -0.063499153 -0.59800005
0.12432179 -0.063711517 -0.60000002
0.12581943 -0.063817702 -0.60100001
0.1271099 -0.063817702 -0.60100001
0.12861401 -0.063923895 -0.60200006
nan nan nan
0.13163508 -0.064136267 -0.60400003
0.13293198 -0.064136267 -0.60400003
0.13400665 -0.064030081 -0.60300004
0.13485263 -0.063817702 -0.60100001
0.13614309 -0.063817702 -0.60100001
0.1369762 -0.063605331 -0.59900004
0.13826236 -0.063605331 -0.59900004
0.13954853 -0.063605331 -0.59900004
0.14059956 -0.063499153 -0.59800005
0.14188358 -0.063499153 -0.59800005
0.143407 -0.063605331 -0.59900004
0.14469317 -0.063605331 -0.59900004
0.14597933 -0.063605331 -0.59900004
0.14751133 -0.063711517 -0.60000002
0.14904764 -0.063817702 -0.60100001
0.15058826 -0.063923895 -0.60200006
0.15188086 -0.063923895 -0.60200006
0.15317346 -0.063923895 -0.60200006
0.15446606 -0.063923895 -0.60200006
0.15549992 -0.063817702 -0.60100001
nan nan nan
0.15755478 -0.063605331 -0.59900004
0.15857577 -0.063499153 -0.59800005
0.15985978 -0.063499153 -0.59800005
0.16114379 -0.063499153 -0.59800005
0.16269943 -0.063605331 -0.59900004
0.16425934 -0.063711517 -0.60000002
0.16582358 -0.063817702 -0.60100001
0.16711402 -0.063817702 -0.60100001
0.16840449 -0.063817702 -0.60100001
0.16997731 -0.063923895 -0.60200006
0.17126991 -0.063923895 -0.60200006
0.17227584 -0.063817702 -0.60100001
0.1735663 -0.063817702 -0.60100001
0.17456582 -0.063711517 -0.60000002
0.17585412 -0.063711517 -0.60000002
0.17714244 -0.063711517 -0.60000002
0.17843074 -0.063711517 -0.60000002
0.18001859 -0.063817702 -0.60100001
0.18161073 -0.063923895 -0.60200006
0.18290332 -0.063923895 -0.60200006
0.18419594 -0.063923895 -0.60200006
0.18548854 -0.063923895 -0.60200006
0.18709141 -0.064030081 -0.60300004
0.18869856 -0.064136267 -0.60400003
0.18999547 -0.064136267 -0.60400003
0.19129236 -0.064136267 -0.60400003
0.19258927 -0.064136267 -0.60400003
0.19388616 -0.064136267 -0.60400003
0.1955062 -0.064242445 -0.60500002
0.19680525 -0.064242445 -0.60500002
nan nan nan
0.19973293 -0.064348631 -0.60600001
0.20103411 -0.064348631 -0.60600001
0.20200144 -0.064242445 -0.60500002
0.20330046 -0.064242445 -0.60500002
0.2045995 -0.064242445 -0.60500002
0.20555824 -0.064136267 -0.60400003
0.20719759 -0.064242445 -0.60500002
0.20849665 -0.064242445 -0.60500002
0.20979568 -0.064242445 -0.60500002
0.21144365 -0.064348631 -0.60600001
0.21274483 -0.064348631 -0.60600001
0.21439926 -0.064454824 -0.60700005
0.21570259 -0.064454824 -0.60700005
0.21700592 -0.064454824 -0.60700005
0.21830928 -0.064454824 -0.60700005
0.2192508 -0.064348631 -0.60600001
0.220552 -0.064348631 -0.60600001
0.22185318 -0.064348631 -0.60600001
0.22241791 -0.064136267 -0.60400003
0.22334442 -0.064030081 -0.60300004
0.22426662 -0.063923895 -0.60200006
0.22555923 -0.063923895 -0.60200006
0.22685184 -0.063923895 -0.60200006
0.22814445 -0.063923895 -0.60200006
0.22943704 -0.063923895 -0.60200006
0.23072965 -0.063923895 -0.60200006
0.23163681 -0.063817702 -0.60100001
0.23331486 -0.063923895 -0.60200006
0.23460746 -0.063923895 -0.60200006
0.23629192 -0.064030081 -0.60300004
0.23837468 -0.064242445 -0.60500002
0.2396737 -0.064242445 -0.60500002
0.24176939 -0.064454824 -0.60700005
0.24347316 -0.064561009 -0.60800004
0.24518125 -0.064667195 -0.60900003
0.24648887 -0.064667195 -0.60900003
0.24779649 -0.064667195 -0.60900003
0.24869511 -0.064561009 -0.60800004
0.2500006 -0.064561009 -0.60800004
0.25089276 -0.064454824 -0.60700005
0.2517806 -0.064348631 -0.60600001
0.25224656 -0.064136267 -0.60400003
0.25354344 -0.064136267 -0.60400003
0.25484034 -0.064136267 -0.60400003
0.25698537 -0.064348631 -0.60600001
0.25828654 -0.064348631 -0.60600001
0.26001611 -0.064454824 -0.60700005
0.26174995 -0.064561009 -0.60800004
0.26305544 -0.064561009 -0.60800004
0.26479572 -0.064667195 -0.60900003
0.26566643 -0.064561009 -0.60800004
0.26697192 -0.064561009 -0.60800004
0.26783615 -0.064454824 -0.60700005
0.26869607 -0.064348631 -0.60600001
0.26955172 -0.064242445 -0.60500002
0.27040312 -0.064136267 -0.60400003
0.27214983 -0.064242445 -0.60500002
0.27344888 -0.064242445 -0.60500002
0.27429378 -0.064136267 -0.60400003
0.27559069 -0.064136267 -0.60400003
0.2768876 -0.064136267 -0.60400003
0.27772391 -0.064030081 -0.60300004
0.27855596 -0.063923895 -0.60200006
0.27938366 -0.063817702 -0.60100001
0.28020713 -0.063711517 -0.60000002
0.28149542 -0.063711517 -0.60000002
0.28231245 -0.063605331 -0.59900004
0.28312516 -0.063499153 -0.59800005
0.28488478 -0.063605331 -0.59900004
0.28617093 -0.063605331 -0.59900004
0.2869772 -0.063499153 -0.59800005
0.28922528 -0.063711517 -0.60000002
0.2905136 -0.063711517 -0.60000002
0.2918019 -0.063711517 -0.60000002
0.29357868 -0.063817702 -0.60100001
0.29535982 -0.063923895 -0.60200006
0.29714519 -0.064030081 -0.60300004
0.29893485 -0.064136267 -0.60400003
0.3007288 -0.064242445 -0.60500002
0.30202785 -0.064242445 -0.60500002
0.30382824 -0.064348631 -0.60600001
0.30563298 -0.064454824 -0.60700005
0.30693632 -0.064454824 -0.60700005
0.30874747 -0.064561009 -0.60800004
0.30954298 -0.064454824 -0.60700005
0.31084636 -0.064454824 -0.60700005
0.3116354 -0.064348631 -0.60600001
nan nan nan
nan nan nan
nan nan nan
nan nan nan
nan nan nan
nan nan nan
nan nan nan
nan nan nan
nan nan nan
nan nan nan
nan nan nan
nan nan nan
nan nan nan
nan nan nan
nan nan nan
nan nan nan
nan nan nan
nan nan nan
nan nan nan
nan nan nan
nan nan nan
nan nan nan
nan nan nan
nan nan nan
nan nan nan
nan nan nan
nan nan nan
nan nan nan
nan nan nan
nan nan nan
nan nan nan
nan nan nan
nan nan nan
nan nan nan
nan nan nan
nan nan nan
nan nan nan
nan nan nan
nan nan nan
nan nan nan
nan nan nan
nan nan nan
nan nan nan
nan nan nan
nan nan nan
nan nan nan
nan nan nan
nan nan nan
nan nan nan
nan nan nan
nan nan nan
nan nan nan
nan nan nan
nan nan nan
nan nan nan
nan nan nan
nan nan nan
nan nan nan
nan nan nan
-0.22788891 -0.063699827 -0.588
-0.22624095 -0.063591495 -0.58700001
-0.22459729 -0.063483164 -0.58600003
-0.22295791 -0.063374832 -0.58500004
-0.22170182 -0.063374832 -0.58500004
-0.22044571 -0.063374832 -0.58500004
-0.21918961 -0.063374832 -0.58500004
-0.21867856 -0.063591495 -0.58700001
-0.21778856 -0.063699827 -0.588
-0.21689428 -0.063808165 -0.58900005
-0.21562959 -0.063808165 -0.58900005
-0.2143649 -0.063808165 -0.58900005
-0.21273839 -0.063699827 -0.588
-0.21147585 -0.063699827 -0.588
-0.2102133 -0.063699827 -0.588
-0.20895077 -0.063699827 -0.588
-0.20768823 -0.063699827 -0.588
-0.20677677 -0.063808165 -0.58900005
-0.20551208 -0.063808165 -0.58900005
-0.20459415 -0.063916497 -0.59000003
-0.20332731 -0.063916497 -0.59000003
-0.201718 -0.063808165 -0.58900005
-0.20045331 -0.063808165 -0.58900005
-0.19885042 -0.063699827 -0.588
-0.19758789 -0.063699827 -0.588
-0.19632535 -0.063699827 -0.588
-0.19473107 -0.063591495 -0.58700001
-0.19412987 -0.063808165 -0.58900005
-0.19286518 -0.063808165 -0.58900005
-0.19127518 -0.063699827 -0.588
-0.1903358 -0.063808165 -0.58900005
-0.18875009 -0.063699827 -0.588
-0.18748756 -0.063699827 -0.588
nan nan nan
nan nan nan
nan nan nan
nan nan nan
nan nan nan
nan nan nan
nan nan nan
nan nan nan
nan nan nan
nan nan nan
-0.17448531 -0.064024828 -0.59100002
-0.17292322 -0.063916497 -0.59000003
-0.17136545 -0.063808165 -0.58900005
-0.17010076 -0.063808165 -0.58900005
-0.16940936 -0.064024828 -0.59100002
-0.16842489 -0.06413316 -0.59200001
-0.16715375 -0.06413316 -0.59200001
-0.16588262 -0.06413316 -0.59200001
-0.16433342 -0.064024828 -0.59100002
-0.16306445 -0.064024828 -0.59100002
-0.16179545 -0.064024828 -0.59100002
-0.16025487 -0.063916497 -0.59000003
-0.15871854 -0.063808165 -0.58900005
-0.15745386 -0.063808165 -0.58900005
-0.15618919 -0.063808165 -0.58900005
-0.15492448 -0.063808165 -0.58900005
-0.15418155 -0.064024828 -0.59100002
-0.15343004 -0.064241499 -0.59300005
-0.15215677 -0.064241499 -0.59300005
-0.15062903 -0.06413316 -0.59200001
-0.14961022 -0.064241499 -0.59300005
-0.14833695 -0.064241499 -0.59300005
-0.14681564 -0.06413316 -0.59200001
-0.14505282 -0.063916497 -0.59000003
-0.14354227 -0.063808165 -0.58900005
-0.14251915 -0.063916497 -0.59000003
-0.14101291 -0.063808165 -0.58900005
-0.13974822 -0.063808165 -0.58900005
-0.13848352 -0.063808165 -0.58900005
-0.1374518 -0.063916497 -0.59000003
-0.13641578 -0.064024828 -0.59100002
-0.13537547 -0.06413316 -0.59200001
-0.13433087 -0.064241499 -0.59300005
-0.13328198 -0.06434983 -0.59400004
-0.13222878 -0.064458162 -0.59500003
-0.13095121 -0.064458162 -0.59500003
-0.1294557 -0.06434983 -0.59400004
-0.12796448 -0.064241499 -0.59300005
-0.12669121 -0.064241499 -0.59300005
-0.12562943 -0.06434983 -0.59400004
-0.12456334 -0.064458162 -0.59500003
-0.12328577 -0.064458162 -0.59500003
-0.1220082 -0.064458162 -0.59500003
-0.12052772 -0.06434983 -0.59400004
-0.11925229 -0.06434983 -0.59400004
-0.11777826 -0.064241499 -0.59300005
-0.1163085 -0.06413316 -0.59200001
-0.11484305 -0.064024828 -0.59100002
-0.11318973 -0.063808165 -0.58900005
-0.11192504 -0.063808165 -0.58900005
-0.11066035 -0.063808165 -0.58900005
-0.10939566 -0.063808165 -0.58900005
-0.10831455 -0.063916497 -0.59000003
-0.10722915 -0.064024828 -0.59100002
-0.10631875 -0.064241499 -0.59300005
-0.10504547 -0.064241499 -0.59300005
-0.10377219 -0.064241499 -0.59300005
-0.10232607 -0.06413316 -0.59200001
-0.10088423 -0.064024828 -0.59100002
-0.099615246 -0.064024828 -0.59100002
-0.098179854 -0.063916497 -0.59000003
-0.096913017 -0.063916497 -0.59000003
-0.09564618 -0.063916497 -0.59000003
-0.094219379 -0.063808165 -0.58900005
-0.092954688 -0.063808165 -0.58900005
-0.091845676 -0.063916497 -0.59000003
-0.090732358 -0.064024828 -0.59100002
-0.089614749 -0.06413316 -0.59200001
-0.088343613 -0.06413316 -0.59200001
-0.087072484 -0.06413316 -0.59200001
-0.085946292 -0.064241499 -0.59300005
-0.084530219 -0.06413316 -0.59200001
-0.083259091 -0.06413316 -0.59200001
-0.081987955 -0.06413316 -0.59200001
-0.080716833 -0.06413316 -0.59200001
-0.079311505 -0.064024828 -0.59100002
-0.078042515 -0.064024828 -0.59100002
-0.076773532 -0.064024828 -0.59100002
-0.075504549 -0.064024828 -0.59100002
-0.074361168 -0.06413316 -0.59200001
-0.073090039 -0.06413316 -0.59200001
-0.071940228 -0.064241499 -0.59300005
-0.070786119 -0.06434983 -0.59400004
-0.06962771 -0.064458162 -0.59500003
-0.068465017 -0.064566493 -0.59600002
-0.067185298 -0.064566493 -0.59600002
-0.065794997 -0.064458162 -0.59500003
-0.064517424 -0.064458162 -0.59500003
-0.06323985 -0.064458162 -0.59500003
-0.061962277 -0.064458162 -0.59500003
-0.060582716 -0.06434983 -0.59400004
-0.059207447 -0.064241499 -0.59300005
-0.057934169 -0.064241499 -0.59300005
-0.056660891 -0.064241499 -0.59300005
-0.055294205 -0.06413316 -0.59200001
-0.054023072 -0.06413316 -0.59200001
-0.052751943 -0.06413316 -0.59200001
-0.051567778 -0.064241499 -0.59300005
-0.050464123 -0.064458162 -0.59500003
-0.049269214 -0.064566493 -0.59600002
-0.047989499 -0.064566493 -0.59600002
-0.046709776 -0.064566493 -0.59600002
-0.045430057 -0.064566493 -0.59600002
-0.044150334 -0.064566493 -0.59600002
-0.042942546 -0.064674824 -0.597
-0.041660678 -0.064674824 -0.597
-0.040378813 -0.064674824 -0.597
-0.039096944 -0.064674824 -0.597
-0.037815079 -0.064674824 -0.597
-0.036594409 -0.064783163 -0.59800005
nan nan nan
-0.033969477 -0.064674824 -0.597
nan nan nan
-0.031247927 -0.06434983 -0.59400004
-0.029922042 -0.064241499 -0.59300005
-0.028600451 -0.06413316 -0.59200001
-0.027329318 -0.06413316 -0.59200001
-0.026102208 -0.064241499 -0.59300005
-0.024870798 -0.06434983 -0.59400004
-0.023595374 -0.06434983 -0.59400004
-0.022319946 -0.06434983 -0.59400004
-0.021044523 -0.06434983 -0.59400004
-0.019802377 -0.064458162 -0.59500003
nan nan nan
nan nan nan
nan nan nan
nan nan nan
-0.013504696 -0.064891495 -0.59900004
-0.012238933 -0.064999826 -0.60000002
-0.010932373 -0.064891495 -0.59900004
-0.0096462118 -0.064891495 -0.59900004
-0.0083600497 -0.064891495 -0.59900004
-0.0070738881 -0.064891495 -0.59900004
-0.0057780645 -0.064783163 -0.59800005
-0.0044940501 -0.064783163 -0.59800005
-0.0032100359 -0.064783163 -0.59800005
-0.0019260215 -0.064783163 -0.59800005
-0.00064200716 -0.064783163 -0.59800005
0.00064200716 -0.064783163 -0.59800005
0.0019292422 -0.064891495 -0.59900004
0.0032154038 -0.064891495 -0.59900004
0.0045090802 -0.064999826 -0.60000002
0.005807051 -0.065108158 -0.60100001
0.0070975069 -0.065108158 -0.60100001
0.0083879624 -0.065108158 -0.60100001
0.0096784187 -0.065108158 -0.60100001
0.010968875 -0.065108158 -0.60100001
0.012259331 -0.065108158 -0.60100001
0.013549786 -0.065108158 -0.60100001
0.014815549 -0.064999826 -0.60000002
0.016103858 -0.064999826 -0.60000002
0.017363181 -0.064891495 -0.59900004
0.018618207 -0.064783163 -0.59800005
0.019902222 -0.064783163 -0.59800005
0.021150807 -0.064674824 -0.597
0.022395097 -0.064566493 -0.59600002
0.023674818 -0.064566493 -0.59600002
0.024954537 -0.064566493 -0.59600002
0.026234258 -0.064566493 -0.59600002
0.027513977 -0.064566493 -0.59600002
0.028793698 -0.064566493 -0.59600002
0.030123875 -0.064674824 -0.597
0.031458352 -0.064783163 -0.59800005
0.032742366 -0.064783163 -0.59800005
0.034083281 -0.064891495 -0.59900004
0.035310395 -0.064783163 -0.59800005
0.036655601 -0.064891495 -0.59900004
0.037941765 -0.064891495 -0.59900004
0.039162435 -0.064783163 -0.59800005
0.040446449 -0.064783163 -0.59800005
0.041660678 -0.064674824 -0.597
0.042870618 -0.064566493 -0.59600002
0.044224411 -0.064674824 -0.597
0.04550628 -0.064674824 -0.597
0.046866525 -0.064783163 -0.59800005
0.048150539 -0.064783163 -0.59800005
0.04943455 -0.064783163 -0.59800005
0.050803378 -0.064891495 -0.59900004
0.052089538 -0.064891495 -0.59900004
0.053375702 -0.064891495 -0.59900004
0.054661863 -0.064891495 -0.59900004
0.055854622 -0.064783163 -0.59800005
0.057138637 -0.064783163 -0.59800005
0.058422655 -0.064783163 -0.59800005
0.059706666 -0.064783163 -0.59800005
0.06099068 -0.064783163 -0.59800005
0.062274694 -0.064783163 -0.59800005
0.063558713 -0.064783163 -0.59800005
0.064842723 -0.064783163 -0.59800005
0.066016153 -0.064674824 -0.597
0.067298017 -0.064674824 -0.597
0.068465017 -0.064566493 -0.59600002
0.06962771 -0.064458162 -0.59500003
0.070786119 -0.06434983 -0.59400004
0.072061546 -0.06434983 -0.59400004
0.073583893 -0.064566493 -0.59600002
0.074863613 -0.064566493 -0.59600002
0.076271087 -0.064674824 -0.597
0.077682868 -0.064783163 -0.59800005
0.078966886 -0.064783163 -0.59800005
0.080250897 -0.064783163 -0.59800005
0.081534915 -0.064783163 -0.59800005
0.082818918 -0.064783163 -0.59800005
0.084243573 -0.064891495 -0.59900004
0.085386954 -0.064783163 -0.59800005
0.086670965 -0.064783163 -0.59800005
0.087954983 -0.064783163 -0.59800005
0.089238994 -0.064783163 -0.59800005
0.090523012 -0.064783163 -0.59800005
0.09180703 -0.064783163 -0.59800005
0.093091041 -0.064783163 -0.59800005
0.094532862 -0.064891495 -0.59900004
0.095819026 -0.064891495 -0.59900004
0.09710519 -0.064891495 -0.59900004
0.098391354 -0.064891495 -0.59900004
0.099511109 -0.064783163 -0.59800005
0.10079513 -0.064783163 -0.59800005
0.10190843 -0.064674824 -0.597
0.1031903 -0.064674824 -0.597
0.10447216 -0.064674824 -0.597
0.10557689 -0.064566493 -0.59600002
0.10685661 -0.064566493 -0.59600002
0.10813633 -0.064566493 -0.59600002
0.10959964 -0.064674824 -0.597
0.1108815 -0.064674824 -0.597
0.11216337 -0.064674824 -0.597
0.11306519 -0.064458162 -0.59500003
0.11415058 -0.06434983 -0.59400004
0.11562033 -0.064458162 -0.59500003
0.1168979 -0.064458162 -0.59500003
0.11817548 -0.064458162 -0.59500003
0.11945305 -0.064458162 -0.59500003
0.12093353 -0.064566493 -0.59600002
0.12221325 -0.064566493 -0.59600002
0.12370017 -0.064674824 -0.597
0.12498204 -0.064674824 -0.597
0.12605241 -0.064566493 -0.59600002
0.12754577 -0.064674824 -0.597
nan nan nan
nan nan nan
nan nan nan
nan nan nan
0.13440388 -0.064891495 -0.59900004
0.13546351 -0.064783163 -0.59800005
0.13674752 -0.064783163 -0.59800005
0.13780071 -0.064674824 -0.597
0.13908258 -0.064674824 -0.597
0.14012933 -0.064566493 -0.59600002
0.14140905 -0.064566493 -0.59600002
0.14268877 -0.064566493 -0.59600002
0.14421004 -0.064674824 -0.597
0.14573562 -0.064783163 -0.59800005
0.14701964 -0.064783163 -0.59800005
0.14855164 -0.064891495 -0.59900004
0.15008797 -0.064999826 -0.60000002
0.15137626 -0.064999826 -0.60000002
0.15266457 -0.064999826 -0.60000002
0.15395288 -0.064999826 -0.60000002
0.15498245 -0.064891495 -0.59900004
nan nan nan
0.15729176 -0.064783163 -0.59800005
0.15831059 -0.064674824 -0.597
0.15959245 -0.064674824 -0.597
0.16087431 -0.064674824 -0.597
0.16215618 -0.064674824 -0.597
0.16371182 -0.064783163 -0.59800005
0.16527176 -0.064891495 -0.59900004
0.16655791 -0.064891495 -0.59900004
0.16812429 -0.064999826 -0.60000002
0.16941258 -0.064999826 -0.60000002
0.17070091 -0.064999826 -0.60000002
0.17170256 -0.064891495 -0.59900004
0.17298871 -0.064891495 -0.59900004
0.17427488 -0.064891495 -0.59900004
0.17556104 -0.064891495 -0.59900004
0.1768472 -0.064891495 -0.59900004
0.17813337 -0.064891495 -0.59900004
0.17971906 -0.064999826 -0.60000002
0.18100736 -0.064999826 -0.60000002
0.18259948 -0.065108158 -0.60100001
0.18388996 -0.065108158 -0.60100001
0.1851804 -0.065108158 -0.60100001
0.18678115 -0.065216497 -0.60200006
0.18776131 -0.065108158 -0.60100001
0.18905178 -0.065108158 -0.60100001
0.19034223 -0.065108158 -0.60100001
0.19131385 -0.064999826 -0.60000002
0.19260214 -0.064999826 -0.60000002
0.19389044 -0.064999826 -0.60000002
0.19485347 -0.064891495 -0.59900004
nan nan nan
nan nan nan
nan nan nan
0.20066588 -0.065108158 -0.60100001
0.20195633 -0.065108158 -0.60100001
0.20324677 -0.065108158 -0.60100001
0.20419692 -0.064999826 -0.60000002
0.2058277 -0.065108158 -0.60100001
0.20711815 -0.065108158 -0.60100001
0.20875539 -0.065216497 -0.60200006
0.210048 -0.065216497 -0.60200006
0.21134061 -0.065216497 -0.60200006
0.21298642 -0.065324828 -0.60300004
0.21428116 -0.065324828 -0.60300004
0.2155759 -0.065324828 -0.60300004
0.21687067 -0.065324828 -0.60300004
0.21780361 -0.065216497 -0.60200006
0.21909623 -0.065216497 -0.60200006
0.22002271 -0.065108158 -0.60100001
0.22131318 -0.065108158 -0.60100001
0.22223324 -0.064999826 -0.60000002
0.223149 -0.064891495 -0.59900004
0.22443518 -0.064891495 -0.59900004
0.22572133 -0.064891495 -0.59900004
0.22700751 -0.064891495 -0.59900004
0.22867478 -0.064999826 -0.60000002
0.22957984 -0.064891495 -0.59900004
0.2312514 -0.064999826 -0.60000002
0.23253971 -0.064999826 -0.60000002
0.23382802 -0.064999826 -0.60000002
0.23511632 -0.064999826 -0.60000002
0.23679864 -0.065108158 -0.60100001
0.23808908 -0.065108158 -0.60100001
0.23937955 -0.065108158 -0.60100001
0.24147092 -0.065324828 -0.60300004
0.24316826 -0.065433159 -0.60400003
0.24446516 -0.065433159 -0.60400003
0.24535516 -0.065324828 -0.60300004
0.24624088 -0.065216497 -0.60200006
0.24712227 -0.065108158 -0.60100001
0.24841274 -0.065108158 -0.60100001
0.24928771 -0.064999826 -0.60000002
0.25057605 -0.064999826 -0.60000002
0.25186434 -0.064999826 -0.60000002
0.25315267 -0.064999826 -0.60000002
0.25486502 -0.065108158 -0.60100001
0.25658169 -0.065216497 -0.60200006
0.25787431 -0.065216497 -0.60200006
0.25959742 -0.065324828 -0.60300004
0.26132482 -0.065433159 -0.60400003
0.2626217 -0.065433159 -0.60400003
0.26348168 -0.065324828 -0.60300004
0.26477641 -0.065324828 -0.60300004
0.26607117 -0.065324828 -0.60300004
0.26692253 -0.065216497 -0.60200006
0.26821512 -0.065216497 -0.60200006
0.26950774 -0.065216497 -0.60200006
0.27080035 -0.065216497 -0.60200006
0.27209294 -0.065216497 -0.60200006
0.27338555 -0.065216497 -0.60200006
0.27467817 -0.065216497 -0.60200006
0.27597076 -0.065216497 -0.60200006
0.27680275 -0.065108158 -0.60100001
0.27763051 -0.064999826 -0.60000002
0.2789188 -0.064999826 -0.60000002
0.27974012 -0.064891495 -0.59900004
0.28055713 -0.064783163 -0.59800005
0.28184116 -0.064783163 -0.59800005
0.28312516 -0.064783163 -0.59800005
0.2844092 -0.064783163 -0.59800005
0.2856932 -0.064783163 -0.59800005
0.2869772 -0.064783163 -0.59800005
0.28826123 -0.064783163 -0.59800005
0.29002941 -0.064891495 -0.59900004
0.29131559 -0.064891495 -0.59900004
0.29260173 -0.064891495 -0.59900004
0.29388791 -0.064891495 -0.59900004
0.29566684 -0.064999826 -0.60000002
0.29745007 -0.065108158 -0.60100001
0.29923761 -0.065216497 -0.60200006
0.3005302 -0.065216497 -0.60200006
0.30232418 -0.065324828 -0.60300004
0.30412242 -0.065433159 -0.60400003
0.30592498 -0.065541491 -0.60500002
0.30773184 -0.065649822 -0.60600001
0.30903301 -0.065649822 -0.60600001
0.30931002 -0.065433159 -0.60400003
0.30957845 -0.065216497 -0.60200006
nan nan nan
nan nan nan
nan nan nan
nan nan nan
nan nan nan
nan nan nan
nan nan nan
nan nan nan
nan nan nan
nan nan nan
nan nan nan
nan nan nan
nan nan nan
nan nan nan
nan nan nan
nan nan nan
nan nan nan
nan nan nan
nan nan nan
nan nan nan
nan nan nan
nan nan nan
nan nan nan
nan nan nan
nan nan nan
nan nan nan
nan nan nan
nan nan nan
nan nan nan
nan nan nan
nan nan nan
nan nan nan
nan nan nan
nan nan nan
nan nan nan
nan nan nan
nan nan nan
nan nan nan
nan nan nan
nan nan nan
nan nan nan
nan nan nan
nan nan nan
nan nan nan
nan nan nan
nan nan nan
nan nan nan
nan nan nan
nan nan nan
nan nan nan
nan nan nan
nan nan nan
nan nan nan
nan nan nan
nan nan nan
nan nan nan
nan nan nan
nan nan nan
nan nan nan
-0.22711378 -0.06474141 -0.58600003
-0.22547013 -0.064630933 -0.58500004
-0.22344747 -0.064409971 -0.583
-0.22143342 -0.064189009 -0.58100003
-0.21942796 -0.063968055 -0.57900006
-0.21818474 -0.063968055 -0.57900006
-0.21694152 -0.063968055 -0.57900006
-0.21644336 -0.064189009 -0.58100003
-0.21667741 -0.064630933 -0.58500004
-0.21615779 -0.064851888 -0.58700001
-0.21526347 -0.064962372 -0.588
-0.21400094 -0.064962372 -0.588
-0.21273839 -0.064962372 -0.588
-0.21147585 -0.064962372 -0.588
-0.20985581 -0.064851888 -0.58700001
-0.20859541 -0.064851888 -0.58700001
-0.20733503 -0.064851888 -0.58700001
-0.20607463 -0.064851888 -0.58700001
-0.20516315 -0.064962372 -0.588
nan nan nan
nan nan nan
-0.20103304 -0.064851888 -0.58700001
-0.19943233 -0.06474141 -0.58600003
-0.19817407 -0.06474141 -0.58600003
-0.1965798 -0.064630933 -0.58500004
-0.19532371 -0.064630933 -0.58500004
-0.19373585 -0.064520456 -0.58400005
-0.19347067 -0.064851888 -0.58700001
-0.19221027 -0.064851888 -0.58700001
-0.19094989 -0.064851888 -0.58700001
-0.19001262 -0.064962372 -0.588
nan nan nan
nan nan nan
nan nan nan
nan nan nan
nan nan nan
nan nan nan
nan nan nan
nan nan nan
nan nan nan
nan nan nan
nan nan nan
nan nan nan
nan nan nan
-0.17204395 -0.064851888 -0.58700001
-0.17078356 -0.064851888 -0.58700001
-0.16981195 -0.064962372 -0.588
-0.16883607 -0.065072857 -0.58900005
-0.16785589 -0.065183334 -0.59000003
-0.16658904 -0.065183334 -0.59000003
-0.16504201 -0.065072857 -0.58900005
-0.16377731 -0.065072857 -0.58900005
-0.16251263 -0.065072857 -0.58900005
-0.16124792 -0.065072857 -0.58900005
-0.15971161 -0.064962372 -0.588
-0.15844907 -0.064962372 -0.588
-0.15691921 -0.064851888 -0.58700001
-0.15565883 -0.064851888 -0.58700001
-0.15466145 -0.064962372 -0.588
-0.1533989 -0.064962372 -0.588
-0.1523951 -0.065072857 -0.58900005
-0.15113042 -0.065072857 -0.58900005
-0.14961126 -0.064962372 -0.588
-0.14860104 -0.065072857 -0.58900005
-0.1470862 -0.064962372 -0.588
-0.14582364 -0.064962372 -0.588
-0.14431526 -0.064851888 -0.58700001
-0.14305486 -0.064851888 -0.58700001
-0.14179447 -0.064851888 -0.58700001
-0.14077348 -0.064962372 -0.588
-0.13951094 -0.064962372 -0.588
-0.1382484 -0.064962372 -0.588
-0.13698585 -0.064962372 -0.588
-0.13595414 -0.065072857 -0.58900005
-0.13468945 -0.065072857 -0.58900005
-0.13342476 -0.065072857 -0.58900005
-0.13216008 -0.065072857 -0.58900005
-0.13111761 -0.065183334 -0.59000003
-0.12985078 -0.065183334 -0.59000003
-0.12858394 -0.065183334 -0.59000003
-0.12710132 -0.065072857 -0.58900005
-0.12605026 -0.065183334 -0.59000003
-0.12499492 -0.065293811 -0.59100002
-0.12372594 -0.065293811 -0.59100002
-0.12266416 -0.065404288 -0.59200001
-0.12118798 -0.065293811 -0.59100002
-0.11991899 -0.065293811 -0.59100002
-0.11865 -0.065293811 -0.59100002
-0.11718241 -0.065183334 -0.59000003
-0.1157191 -0.065072857 -0.58900005
-0.11445442 -0.065072857 -0.58900005
-0.11299754 -0.064962372 -0.588
-0.11173501 -0.064962372 -0.588
-0.11028459 -0.064851888 -0.58700001
-0.10902419 -0.064851888 -0.58700001
-0.1077638 -0.064851888 -0.58700001
-0.10668483 -0.064962372 -0.588
-0.10542229 -0.064962372 -0.588
-0.10415975 -0.064962372 -0.588
-0.1030722 -0.065072857 -0.58900005
-0.10180753 -0.065072857 -0.58900005
-0.10037213 -0.064962372 -0.588
-0.099109583 -0.064962372 -0.588
-0.097680636 -0.064851888 -0.58700001
-0.096584491 -0.064962372 -0.588
-0.095159844 -0.064851888 -0.58700001
-0.093899444 -0.064851888 -0.58700001
-0.092639051 -0.064851888 -0.58700001
-0.091378659 -0.064851888 -0.58700001
-0.090271786 -0.064962372 -0.588
-0.08900924 -0.064962372 -0.588
-0.087597474 -0.064851888 -0.58700001
-0.086337075 -0.064851888 -0.58700001
-0.085076682 -0.064851888 -0.58700001
nan nan nan
-0.082696527 -0.064962372 -0.588
-0.08157248 -0.065072857 -0.58900005
-0.080307797 -0.065072857 -0.58900005
-0.079177305 -0.065183334 -0.59000003
-0.077778414 -0.065072857 -0.58900005
-0.07651373 -0.065072857 -0.58900005
-0.075249039 -0.065072857 -0.58900005
-0.073984347 -0.065072857 -0.58900005
-0.072719656 -0.065072857 -0.58900005
-0.071454965 -0.065072857 -0.58900005
-0.070190273 -0.065072857 -0.58900005
-0.069042608 -0.065183334 -0.59000003
-0.067890644 -0.065293811 -0.59100002
-0.066621661 -0.065293811 -0.59100002
-0.065352678 -0.065293811 -0.59100002
-0.064192124 -0.065404288 -0.59200001
-0.062814713 -0.065293811 -0.59100002
-0.061545726 -0.065293811 -0.59100002
-0.060276739 -0.065293811 -0.59100002
-0.058907911 -0.065183334 -0.59000003
-0.057641078 -0.065183334 -0.59000003
-0.056278691 -0.065072857 -0.58900005
-0.054920595 -0.064962372 -0.588
-0.05365805 -0.064962372 -0.588
-0.052484624 -0.065072857 -0.58900005
-0.051306892 -0.065183334 -0.59000003
-0.050209679 -0.065404288 -0.59200001
-0.049021218 -0.065514773 -0.59300005
-0.047747944 -0.065514773 -0.59300005
-0.046631407 -0.065735735 -0.59500003
-0.04535383 -0.065735735 -0.59500003
-0.044076256 -0.065735735 -0.59500003
-0.042798687 -0.065735735 -0.59500003
-0.041521113 -0.065735735 -0.59500003
-0.04024354 -0.065735735 -0.59500003
-0.03890048 -0.065625258 -0.59400004
-0.037561715 -0.065514773 -0.59300005
-0.036166046 -0.065293811 -0.59100002
-0.034719914 -0.064962372 -0.588
-0.033457376 -0.064962372 -0.588
-0.03219483 -0.064962372 -0.588
-0.030932289 -0.064962372 -0.588
-0.029720208 -0.065072857 -0.58900005
-0.028455518 -0.065072857 -0.58900005
-0.027190827 -0.065072857 -0.58900005
-0.025970155 -0.065183334 -0.59000003
-0.024703318 -0.065183334 -0.59000003
-0.023436481 -0.065183334 -0.59000003
-0.022169644 -0.065183334 -0.59000003
-0.020902809 -0.065183334 -0.59000003
-0.01963597 -0.065183334 -0.59000003
-0.018400269 -0.065293811 -0.59100002
nan nan nan
nan nan nan
-0.014667395 -0.065625258 -0.59400004
-0.013414514 -0.065735735 -0.59500003
-0.01215734 -0.065846212 -0.59600002
-0.010895871 -0.065956689 -0.597
-0.0095978994 -0.065846212 -0.59600002
-0.0083181793 -0.065846212 -0.59600002
-0.00702665 -0.065735735 -0.59500003
-0.0057297531 -0.065514773 -0.59300005
-0.0044639898 -0.065625258 -0.59400004
-0.0031831961 -0.065514773 -0.59300005
-0.0019099177 -0.065514773 -0.59300005
nan nan nan
0.00063985994 -0.065846212 -0.59600002
0.0019195798 -0.065846212 -0.59600002
nan nan nan
0.0045015654 -0.066177659 -0.59900004
0.0057877265 -0.066177659 -0.59900004
0.0070856973 -0.066288136 -0.60000002
0.0083740065 -0.066288136 -0.60000002
0.0096623152 -0.066288136 -0.60000002
0.010950624 -0.066288136 -0.60000002
0.012238933 -0.066288136 -0.60000002
0.013504696 -0.066177659 -0.59900004
0.014790857 -0.066177659 -0.59900004
0.01605018 -0.066067174 -0.59800005
0.017334193 -0.066067174 -0.59800005
0.018555939 -0.065846212 -0.59600002
0.019835658 -0.065846212 -0.59600002
0.02107995 -0.065735735 -0.59500003
0.022319946 -0.065625258 -0.59400004
0.023595374 -0.065625258 -0.59400004
0.024870798 -0.065625258 -0.59400004
0.026146226 -0.065625258 -0.59400004
0.02742165 -0.065625258 -0.59400004
0.028697075 -0.065625258 -0.59400004
0.030022958 -0.065735735 -0.59500003
0.031353138 -0.065846212 -0.59600002
0.032632858 -0.065846212 -0.59600002
0.033969477 -0.065956689 -0.597
0.035192296 -0.065846212 -0.59600002
0.036472019 -0.065846212 -0.59600002
0.037751738 -0.065846212 -0.59600002
0.039031453 -0.065846212 -0.59600002
0.040175904 -0.065625258 -0.59400004
0.041311763 -0.065404288 -0.59200001
0.042582896 -0.065404288 -0.59200001
0.043928105 -0.065514773 -0.59300005
0.04535383 -0.065735735 -0.59500003
0.046709776 -0.065846212 -0.59600002
0.047989499 -0.065846212 -0.59600002
0.049351878 -0.065956689 -0.597
0.050633747 -0.065956689 -0.597
0.051915616 -0.065956689 -0.597
0.053197484 -0.065956689 -0.597
0.054479346 -0.065956689 -0.597
0.055761214 -0.065956689 -0.597
0.057043083 -0.065956689 -0.597
0.058324952 -0.065956689 -0.597
0.059606817 -0.065956689 -0.597
0.060888685 -0.065956689 -0.597
0.06217055 -0.065956689 -0.597
0.063346133 -0.065846212 -0.59600002
0.064625852 -0.065846212 -0.59600002
0.065794997 -0.065735735 -0.59500003
0.066847116 -0.065514773 -0.59300005
0.068120398 -0.065514773 -0.59300005
0.069276646 -0.065404288 -0.59200001
0.070547774 -0.065404288 -0.59200001
0.071818911 -0.065404288 -0.59200001
0.07321351 -0.065514773 -0.59300005
0.074612394 -0.065625258 -0.59400004
0.076015577 -0.065735735 -0.59500003
0.077423051 -0.065846212 -0.59600002
0.078702778 -0.065846212 -0.59600002
0.079982497 -0.065846212 -0.59600002
0.081262216 -0.065846212 -0.59600002
0.082541928 -0.065846212 -0.59600002
0.083821647 -0.065846212 -0.59600002
0.085101373 -0.065846212 -0.59600002
0.086381093 -0.065846212 -0.59600002
0.087660812 -0.065846212 -0.59600002
0.088940531 -0.065846212 -0.59600002
0.090220258 -0.065846212 -0.59600002
0.091653496 -0.065956689 -0.597
0.092935368 -0.065956689 -0.597
0.094375052 -0.066067174 -0.59800005
0.095659062 -0.066067174 -0.59800005
0.09694308 -0.066067174 -0.59800005
0.098227099 -0.066067174 -0.59800005
0.099344701 -0.065956689 -0.597
0.10045801 -0.065846212 -0.59600002
0.10173774 -0.065846212 -0.59600002
0.10267176 -0.065625258 -0.59400004
0.10377219 -0.065514773 -0.59300005
0.10504547 -0.065514773 -0.59300005
0.10613945 -0.065404288 -0.59200001
0.10722915 -0.065293811 -0.59100002
0.10849813 -0.065293811 -0.59100002
0.10976712 -0.065293811 -0.59100002
0.11122398 -0.065404288 -0.59200001
0.11249511 -0.065404288 -0.59200001
0.11357407 -0.065293811 -0.59100002
0.11503737 -0.065404288 -0.59200001
0.11670144 -0.065625258 -0.59400004
0.11797687 -0.065625258 -0.59400004
0.11905153 -0.065514773 -0.59300005
0.12052772 -0.065625258 -0.59400004
0.12180315 -0.065625258 -0.59400004
0.12307857 -0.065625258 -0.59400004
0.12435399 -0.065625258 -0.59400004
0.12541792 -0.065514773 -0.59300005
0.12669121 -0.065514773 -0.59300005
0.12839606 -0.065735735 -0.59500003
0.12967363 -0.065735735 -0.59500003
nan nan nan
nan nan nan
0.13395511 -0.065956689 -0.597
0.13523696 -0.065956689 -0.597
0.13629016 -0.065846212 -0.59600002
0.13733907 -0.065735735 -0.59500003
0.13861664 -0.065735735 -0.59500003
0.13965911 -0.065625258 -0.59400004
0.14069727 -0.065514773 -0.59300005
0.14220996 -0.065625258 -0.59400004
0.14348538 -0.065625258 -0.59400004
0.1452482 -0.065846212 -0.59600002
0.14652793 -0.065846212 -0.59600002
0.14805564 -0.065956689 -0.597
0.14958768 -0.066067174 -0.59800005
0.15087168 -0.066067174 -0.59800005
0.1521557 -0.066067174 -0.59800005
0.15343972 -0.066067174 -0.59800005
0.15472372 -0.066067174 -0.59800005
0.15548597 -0.065846212 -0.59600002
0.15676568 -0.065846212 -0.59600002
0.15778024 -0.065735735 -0.59500003
0.15905781 -0.065735735 -0.59500003
0.16033538 -0.065735735 -0.59500003
0.16188456 -0.065846212 -0.59600002
0.16316429 -0.065846212 -0.59600002
0.16499585 -0.066067174 -0.59800005
0.16627985 -0.066067174 -0.59800005
0.16756387 -0.066067174 -0.59800005
0.16884789 -0.066067174 -0.59800005
0.17013191 -0.066067174 -0.59800005
0.17141591 -0.066067174 -0.59800005
0.17241111 -0.065956689 -0.597
0.17369299 -0.065956689 -0.597
0.17497484 -0.065956689 -0.597
0.17625673 -0.065956689 -0.597
0.17783599 -0.066067174 -0.59800005
0.17912 -0.066067174 -0.59800005
0.18070568 -0.066177659 -0.59900004
0.18199185 -0.066177659 -0.59900004
0.18358397 -0.066288136 -0.60000002
0.18487228 -0.066288136 -0.60000002
0.18647087 -0.066398613 -0.60100001
0.1874489 -0.066288136 -0.60000002
0.18873723 -0.066288136 -0.60000002
0.19002552 -0.066288136 -0.60000002
0.19067614 -0.066067174 -0.59800005
0.19196014 -0.066067174 -0.59800005
0.19292098 -0.065956689 -0.597
0.19387756 -0.065846212 -0.59600002
0.19515727 -0.065846212 -0.59600002
0.196437 -0.065846212 -0.59600002
0.19804846 -0.065956689 -0.597
0.19966424 -0.066067174 -0.59800005
0.20094824 -0.066067174 -0.59800005
0.20257042 -0.066177659 -0.59900004
0.20351627 -0.066067174 -0.59800005
0.20514275 -0.066177659 -0.59900004
0.20642892 -0.066177659 -0.59900004
0.20771508 -0.066177659 -0.59900004
0.20900124 -0.066177659 -0.59900004
0.21063846 -0.066288136 -0.60000002
0.21192677 -0.066288136 -0.60000002
0.21321508 -0.066288136 -0.60000002
0.21450338 -0.066288136 -0.60000002
0.2157917 -0.066288136 -0.60000002
0.21708 -0.066288136 -0.60000002
0.21800438 -0.066177659 -0.59900004
0.21892443 -0.066067174 -0.59800005
nan nan nan
0.22149247 -0.066067174 -0.59800005
0.22240393 -0.065956689 -0.597
0.2236858 -0.065956689 -0.597
0.22534451 -0.066067174 -0.59800005
0.22624953 -0.065956689 -0.597
0.22791255 -0.066067174 -0.59800005
0.22919656 -0.066067174 -0.59800005
0.23048057 -0.066067174 -0.59800005
0.2317646 -0.066067174 -0.59800005
0.2330486 -0.066067174 -0.59800005
0.23433261 -0.066067174 -0.59800005
0.23561662 -0.066067174 -0.59800005
0.23690064 -0.066067174 -0.59800005
0.23818466 -0.066067174 -0.59800005
0.23946866 -0.066067174 -0.59800005
0.24115528 -0.066177659 -0.59900004
0.24244145 -0.066177659 -0.59900004
0.24372759 -0.066177659 -0.59900004
0.24501376 -0.066177659 -0.59900004
0.24629992 -0.066177659 -0.59900004
0.24758609 -0.066177659 -0.59900004
0.24887224 -0.066177659 -0.59900004
0.24974079 -0.066067174 -0.59800005
0.25102481 -0.066067174 -0.59800005
0.25273073 -0.066177659 -0.59900004
0.25401691 -0.066177659 -0.59900004
0.25530306 -0.066177659 -0.59900004
0.2565892 -0.066177659 -0.59900004
0.25787538 -0.066177659 -0.59900004
0.2595942 -0.066288136 -0.60000002
