# .PCD v0.7 - Point Cloud Data file format
VERSION 0.7
FIELDS x y z
SIZE 4 4 4
TYPE F F F
COUNT 1 1 1
WIDTH 1480
HEIGHT 1
VIEWPOINT 0 0 0 1 0 0 0
POINTS 1480
DATA ascii
0.045915317 -0.084408917 -0.528
0.046959922 -0.084249057 -0.52700001
0.048091486 -0.084249057 -0.52700001
0.04922305 -0.084249057 -0.52700001
0.050354615 -0.084249057 -0.52700001
0.051486179 -0.084249057 -0.52700001
0.052617744 -0.084249057 -0.52700001
0.053851299 -0.084408917 -0.528
0.054985009 -0.084408917 -0.528
0.056118723 -0.084408917 -0.528
0.057252433 -0.084408917 -0.528
0.058386143 -0.084408917 -0.528
0.059519857 -0.084408917 -0.528
0.060653567 -0.084408917 -0.528
0.061787277 -0.084408917 -0.528
0.063040167 -0.084568791 -0.52900004
0.064176023 -0.084568791 -0.52900004
0.065311886 -0.084568791 -0.52900004
0.066447742 -0.084568791 -0.52900004
0.067711353 -0.084728658 -0.53000003
0.068849362 -0.084728658 -0.53000003
0.069987372 -0.084728658 -0.53000003
0.071125373 -0.084728658 -0.53000003
nan nan nan
nan nan nan
0.074398749 -0.084568791 -0.52900004
0.075534612 -0.084568791 -0.52900004
0.076670468 -0.084568791 -0.52900004
0.077806331 -0.084568791 -0.52900004
0.079091415 -0.084728658 -0.53000003
0.08007805 -0.084568791 -0.52900004
0.081213906 -0.084568791 -0.52900004
0.08234977 -0.084568791 -0.52900004
0.083485618 -0.084568791 -0.52900004
0.084621482 -0.084568791 -0.52900004
0.08559522 -0.084408917 -0.528
0.08672893 -0.084408917 -0.528
0.087696239 -0.084249057 -0.52700001
0.088659257 -0.08408919 -0.52600002
0.089788675 -0.08408919 -0.52600002
0.090918094 -0.08408919 -0.52600002
0.092222497 -0.084249057 -0.52700001
0.093354061 -0.084249057 -0.52700001
0.094485626 -0.084249057 -0.52700001
0.09561719 -0.084249057 -0.52700001
0.096932337 -0.084408917 -0.528
0.098066054 -0.084408917 -0.528
0.099011891 -0.084249057 -0.52700001
0.10014345 -0.084249057 -0.52700001
0.10127501 -0.084249057 -0.52700001
0.10279522 -0.084568791 -0.52900004
0.10393108 -0.084568791 -0.52900004
0.10526555 -0.084728658 -0.53000003
0.10640356 -0.084728658 -0.53000003
0.10754157 -0.084728658 -0.53000003
0.10867958 -0.084728658 -0.53000003
0.10981758 -0.084728658 -0.53000003
0.11074623 -0.084568791 -0.52900004
0.11188209 -0.084568791 -0.52900004
0.11301795 -0.084568791 -0.52900004
0.11393801 -0.084408917 -0.528
0.11528967 -0.084568791 -0.52900004
0.11642553 -0.084568791 -0.52900004
0.11756139 -0.084568791 -0.52900004
0.11869725 -0.084568791 -0.52900004
nan nan nan
0.12074028 -0.084408917 -0.528
0.12187399 -0.084408917 -0.528
0.1230077 -0.084408917 -0.528
0.12437654 -0.084568791 -0.52900004
0.12527514 -0.084408917 -0.528
0.12640885 -0.084408917 -0.528
0.12754256 -0.084408917 -0.528
0.12891997 -0.084568791 -0.52900004
0.13005583 -0.084568791 -0.52900004
0.1311917 -0.084568791 -0.52900004
0.13232756 -0.084568791 -0.52900004
0.13346341 -0.084568791 -0.52900004
0.13459927 -0.084568791 -0.52900004
0.13599172 -0.084728658 -0.53000003
0.13712971 -0.084728658 -0.53000003
0.13826773 -0.084728658 -0.53000003
0.13940573 -0.084728658 -0.53000003
0.14054374 -0.084728658 -0.53000003
0.14168175 -0.084728658 -0.53000003
0.14281975 -0.084728658 -0.53000003
0.14395776 -0.084728658 -0.53000003
0.144822 -0.084568791 -0.52900004
0.14595786 -0.084568791 -0.52900004
0.14709371 -0.084568791 -0.52900004
0.14822958 -0.084568791 -0.52900004
0.14964779 -0.084728658 -0.53000003
0.1507858 -0.084728658 -0.53000003
0.15192381 -0.084728658 -0.53000003
0.15335059 -0.084888518 -0.53100002
0.15449075 -0.084888518 -0.53100002
0.1556309 -0.084888518 -0.53100002
0.15647583 -0.084728658 -0.53000003
0.15761383 -0.084728658 -0.53000003
0.15875185 -0.084728658 -0.53000003
0.15988985 -0.084728658 -0.53000003
0.16102783 -0.084728658 -0.53000003
0.16216585 -0.084728658 -0.53000003
0.16330385 -0.084728658 -0.53000003
0.16413161 -0.084568791 -0.52900004
0.16526745 -0.084568791 -0.52900004
0.16640332 -0.084568791 -0.52900004
0.16753918 -0.084568791 -0.52900004
0.16867505 -0.084568791 -0.52900004
0.16981089 -0.084568791 -0.52900004
0.17094675 -0.084568791 -0.52900004
0.17208262 -0.084568791 -0.52900004
0.17354591 -0.084728658 -0.53000003
0.17435433 -0.084568791 -0.52900004
0.17549019 -0.084568791 -0.52900004
0.17662606 -0.084568791 -0.52900004
0.17776191 -0.084568791 -0.52900004
0.17889775 -0.084568791 -0.52900004
0.18003362 -0.084568791 -0.52900004
0.18116948 -0.084568791 -0.52900004
0.18230535 -0.084568791 -0.52900004
0.18344119 -0.084568791 -0.52900004
0.18492597 -0.084728658 -0.53000003
0.18641503 -0.084888518 -0.53100002
0.18790841 -0.085048385 -0.53200001
0.1890507 -0.085048385 -0.53200001
0.190193 -0.085048385 -0.53200001
0.19133531 -0.085048385 -0.53200001
0.1924776 -0.085048385 -0.53200001
0.19325596 -0.084888518 -0.53100002
0.19439611 -0.084888518 -0.53100002
0.19553627 -0.084888518 -0.53100002
0.19667642 -0.084888518 -0.53100002
0.19781657 -0.084888518 -0.53100002
0.19895673 -0.084888518 -0.53100002
0.2004737 -0.085048385 -0.53200001
0.201616 -0.085048385 -0.53200001
0.20237719 -0.084888518 -0.53100002
0.20351733 -0.084888518 -0.53100002
0.2050429 -0.085048385 -0.53200001
0.20618521 -0.085048385 -0.53200001
0.20771724 -0.085208252 -0.53300005
0.20886168 -0.085208252 -0.53300005
0.21040013 -0.085368119 -0.53400004
0.21154672 -0.085368119 -0.53400004
0.21269332 -0.085368119 -0.53400004
0.21383992 -0.085368119 -0.53400004
0.2153891 -0.085527979 -0.53500003
0.21653785 -0.085527979 -0.53500003
0.21768658 -0.085527979 -0.53500003
0.21883532 -0.085527979 -0.53500003
0.22039524 -0.085687846 -0.53600001
0.22154614 -0.085687846 -0.53600001
0.22269702 -0.085687846 -0.53600001
0.22384793 -0.085687846 -0.53600001
0.22541857 -0.085847706 -0.537
0.22699356 -0.08600758 -0.53800005
0.22814873 -0.08600758 -0.53800005
0.22973011 -0.086167447 -0.53900003
0.23088746 -0.086167447 -0.53900003
0.23247528 -0.086327307 -0.54000002
0.23406743 -0.086487174 -0.54100001
0.23522905 -0.086487174 -0.54100001
0.23682766 -0.086647041 -0.54200006
0.23799142 -0.086647041 -0.54200006
0.23959643 -0.086806908 -0.54300004
0.24076235 -0.086806908 -0.54300004
0.24237379 -0.086966768 -0.54400003
0.24443723 -0.087286495 -0.546
0.24605945 -0.087446369 -0.54700005
0.24723396 -0.087446369 -0.54700005
0.24886258 -0.087606236 -0.54800004
0.25003925 -0.087606236 -0.54800004
0.25167432 -0.087766096 -0.54900002
0.25239253 -0.087606236 -0.54800004
0.25356922 -0.087606236 -0.54800004
0.25521073 -0.087766096 -0.54900002
0.25638953 -0.087766096 -0.54900002
0.25803748 -0.087925963 -0.55000001
0.25968975 -0.088085823 -0.551
0.26087281 -0.088085823 -0.551
0.26253155 -0.088245697 -0.55200005
0.26419452 -0.088405557 -0.55300003
0.26586181 -0.088565424 -0.55400002
0.26705134 -0.088565424 -0.55400002
0.26824087 -0.088565424 -0.55400002
0.26991677 -0.088725284 -0.55500001
0.27110845 -0.088725284 -0.55500001
0.27279079 -0.088885158 -0.55600005
0.27447739 -0.089045025 -0.55700004
0.27666318 -0.089364752 -0.55900002
0.27786347 -0.089364752 -0.55900002
0.27956295 -0.089524612 -0.56
0.28126675 -0.089684486 -0.56100005
0.28247133 -0.089684486 -0.56100005
0.28367591 -0.089684486 -0.56100005
0.28538829 -0.089844346 -0.56200004
0.28659499 -0.089844346 -0.56200004
0.28831381 -0.090004213 -0.56300002
0.29003692 -0.090164073 -0.56400001
nan nan nan
nan nan nan
nan nan nan
nan nan nan
nan nan nan
nan nan nan
nan nan nan
nan nan nan
nan nan nan
nan nan nan
nan nan nan
nan nan nan
nan nan nan
nan nan nan
nan nan nan
nan nan nan
nan nan nan
nan nan nan
nan nan nan
nan nan nan
nan nan nan
nan nan nan
nan nan nan
nan nan nan
nan nan nan
nan nan nan
nan nan nan
nan nan nan
nan nan nan
nan nan nan
nan nan nan
nan nan nan
nan nan nan
nan nan nan
nan nan nan
nan nan nan
nan nan nan
nan nan nan
nan nan nan
nan nan nan
nan nan nan
nan nan nan
nan nan nan
nan nan nan
nan nan nan
nan nan nan
nan nan nan
nan nan nan
nan nan nan
nan nan nan
nan nan nan
nan nan nan
nan nan nan
nan nan nan
nan nan nan
nan nan nan
nan nan nan
nan nan nan
nan nan nan
nan nan nan
nan nan nan
nan nan nan
nan nan nan
nan nan nan
nan nan nan
-0.19558458 -0.084570557 -0.52200001
-0.1940912 -0.084408551 -0.52100003
-0.19297253 -0.084408551 -0.52100003
nan nan nan
-0.19036908 -0.084246539 -0.52000004
-0.18925256 -0.084246539 -0.52000004
nan nan nan
-0.18701948 -0.084246539 -0.52000004
-0.18590294 -0.084246539 -0.52000004
-0.18478641 -0.084246539 -0.52000004
-0.18366988 -0.084246539 -0.52000004
-0.18255334 -0.084246539 -0.52000004
-0.18178572 -0.084408551 -0.52100003
-0.18032026 -0.084246539 -0.52000004
-0.17954835 -0.084408551 -0.52100003
-0.17842966 -0.084408551 -0.52100003
-0.17731099 -0.084408551 -0.52100003
-0.17585413 -0.084246539 -0.52000004
-0.1747376 -0.084246539 -0.52000004
-0.17362107 -0.084246539 -0.52000004
-0.17283626 -0.084408551 -0.52100003
-0.17171758 -0.084408551 -0.52100003
-0.17059889 -0.084408551 -0.52100003
-0.16948022 -0.084408551 -0.52100003
-0.16868468 -0.084570557 -0.52200001
-0.16756386 -0.084570557 -0.52200001
-0.16644304 -0.084570557 -0.52200001
-0.1653222 -0.084570557 -0.52200001
-0.16388682 -0.084408551 -0.52100003
-0.16276813 -0.084408551 -0.52100003
-0.16164945 -0.084408551 -0.52100003
-0.16022265 -0.084246539 -0.52000004
-0.15910612 -0.084246539 -0.52000004
-0.1582934 -0.084408551 -0.52100003
-0.15717472 -0.084408551 -0.52100003
-0.15635557 -0.084570557 -0.52200001
-0.15523474 -0.084570557 -0.52200001
-0.15411392 -0.084570557 -0.52200001
-0.15328617 -0.08473257 -0.523
-0.15216321 -0.08473257 -0.523
-0.15132903 -0.08489459 -0.52400005
-0.15020391 -0.08489459 -0.52400005
-0.1490788 -0.08489459 -0.52400005
-0.14795366 -0.08489459 -0.52400005
-0.14682855 -0.08489459 -0.52400005
-0.14570342 -0.08489459 -0.52400005
-0.14430237 -0.08473257 -0.523
-0.14290562 -0.084570557 -0.52200001
-0.1417848 -0.084570557 -0.52200001
-0.14066397 -0.084570557 -0.52200001
-0.13954315 -0.084570557 -0.52200001
-0.13868751 -0.08473257 -0.523
-0.13756451 -0.08473257 -0.523
-0.13644154 -0.08473257 -0.523
-0.13531856 -0.08473257 -0.523
-0.1341956 -0.08473257 -0.523
-0.13307261 -0.08473257 -0.523
-0.13194963 -0.08473257 -0.523
nan nan nan
nan nan nan
nan nan nan
nan nan nan
nan nan nan
nan nan nan
nan nan nan
-0.12273072 -0.084570557 -0.52200001
-0.12160989 -0.084570557 -0.52200001
-0.12071988 -0.08473257 -0.523
-0.11936823 -0.084570557 -0.52200001
-0.1182474 -0.084570557 -0.52200001
-0.11712658 -0.084570557 -0.52200001
-0.11600576 -0.084570557 -0.52200001
-0.11488492 -0.084570557 -0.52200001
-0.11376409 -0.084570557 -0.52200001
-0.11264326 -0.084570557 -0.52200001
-0.11152244 -0.084570557 -0.52200001
-0.1106131 -0.08473257 -0.523
-0.10949013 -0.08473257 -0.523
-0.10836715 -0.08473257 -0.523
-0.10724418 -0.08473257 -0.523
nan nan nan
nan nan nan
nan nan nan
nan nan nan
-0.10162929 -0.08473257 -0.523
-0.1006985 -0.08489459 -0.52400005
-0.099763408 -0.085056603 -0.52500004
-0.098636135 -0.085056603 -0.52500004
-0.097508863 -0.085056603 -0.52500004
-0.096198015 -0.08489459 -0.52400005
-0.095072888 -0.08489459 -0.52400005
-0.093768463 -0.08473257 -0.523
-0.092468351 -0.084570557 -0.52200001
-0.091347523 -0.084570557 -0.52200001
-0.090399541 -0.08473257 -0.523
-0.089276567 -0.08473257 -0.523
-0.088322155 -0.08489459 -0.52400005
-0.087363429 -0.085056603 -0.52500004
-0.086400419 -0.085218608 -0.52600002
-0.085271001 -0.085218608 -0.52600002
-0.084141582 -0.085218608 -0.52600002
-0.083169982 -0.085380621 -0.52700001
-0.081882752 -0.085218608 -0.52600002
-0.080599815 -0.085056603 -0.52500004
-0.079169787 -0.08473257 -0.523
-0.077897578 -0.084570557 -0.52200001
-0.07677675 -0.084570557 -0.52200001
-0.075655922 -0.084570557 -0.52200001
-0.074392311 -0.084408551 -0.52100003
-0.073414266 -0.084570557 -0.52200001
-0.072293438 -0.084570557 -0.52200001
-0.07117261 -0.084570557 -0.52200001
-0.070185982 -0.08473257 -0.523
-0.069063 -0.08473257 -0.523
-0.067940027 -0.08473257 -0.523
-0.066944815 -0.08489459 -0.52400005
-0.065694071 -0.08473257 -0.523
-0.064571097 -0.08473257 -0.523
-0.063448124 -0.08473257 -0.523
-0.062325146 -0.08473257 -0.523
-0.061202172 -0.08473257 -0.523
-0.060079198 -0.08473257 -0.523
-0.058956221 -0.08473257 -0.523
-0.057943828 -0.08489459 -0.52400005
-0.056818705 -0.08489459 -0.52400005
-0.055906154 -0.085218608 -0.52600002
-0.054776736 -0.085218608 -0.52600002
-0.053647317 -0.085218608 -0.52600002
-0.052517898 -0.085218608 -0.52600002
-0.051290791 -0.085056603 -0.52500004
-0.050067972 -0.08489459 -0.52400005
-0.048849441 -0.08473257 -0.523
-0.047726464 -0.08473257 -0.523
-0.04660349 -0.08473257 -0.523
-0.045480516 -0.08473257 -0.523
-0.044442356 -0.08489459 -0.52400005
-0.043317232 -0.08489459 -0.52400005
-0.042192113 -0.08489459 -0.52400005
-0.041066986 -0.08489459 -0.52400005
-0.039941862 -0.08489459 -0.52400005
-0.038816739 -0.08489459 -0.52400005
-0.037691619 -0.08489459 -0.52400005
-0.036566496 -0.08489459 -0.52400005
-0.035441373 -0.08489459 -0.52400005
-0.034316249 -0.08489459 -0.52400005
-0.033127785 -0.08473257 -0.523
-0.032004807 -0.08473257 -0.523
-0.030822784 -0.084570557 -0.52200001
-0.029701956 -0.084570557 -0.52200001
-0.028581126 -0.084570557 -0.52200001
-0.027512904 -0.08473257 -0.523
-0.026389927 -0.08473257 -0.523
-0.025266953 -0.08473257 -0.523
-0.024190143 -0.08489459 -0.52400005
-0.023065021 -0.08489459 -0.52400005
-0.021939896 -0.08489459 -0.52400005
-0.020814775 -0.08489459 -0.52400005
-0.019689651 -0.08489459 -0.52400005
-0.01856453 -0.08489459 -0.52400005
-0.017439405 -0.08489459 -0.52400005
-0.016314283 -0.08489459 -0.52400005
-0.015218146 -0.085056603 -0.52500004
-0.014144556 -0.085380621 -0.52700001
-0.013037683 -0.085542634 -0.528
-0.011903971 -0.085542634 -0.528
-0.01077026 -0.085542634 -0.528
-0.0096182982 -0.085380621 -0.52700001
-0.0084867338 -0.085380621 -0.52700001
-0.0073551685 -0.085380621 -0.52700001
-0.0062117949 -0.085218608 -0.52600002
-0.0050823777 -0.085218608 -0.52600002
-0.0039529605 -0.085218608 -0.52600002
-0.002823543 -0.085218608 -0.52600002
-0.0016973466 -0.085380621 -0.52700001
-0.00056578219 -0.085380621 -0.52700001
0.00056578219 -0.085380621 -0.52700001
0.0016941258 -0.085218608 -0.52600002
0.002823543 -0.085218608 -0.52600002
0.0039529605 -0.085218608 -0.52600002
0.0050727152 -0.085056603 -0.52500004
0.0061999853 -0.085056603 -0.52500004
0.0073272553 -0.085056603 -0.52500004
0.0084706293 -0.085218608 -0.52600002
0.0096365483 -0.085542634 -0.528
0.01077026 -0.085542634 -0.528
0.011903971 -0.085542634 -0.528
0.013037683 -0.085542634 -0.528
0.014144556 -0.085380621 -0.52700001
0.01527612 -0.085380621 -0.52700001
0.016407683 -0.085380621 -0.52700001
0.017505966 -0.085218608 -0.52600002
0.018635385 -0.085218608 -0.52600002
0.019727226 -0.085056603 -0.52500004
0.020854497 -0.085056603 -0.52500004
0.021981766 -0.085056603 -0.52500004
0.023109037 -0.085056603 -0.52500004
0.024190143 -0.08489459 -0.52400005
0.025315266 -0.08489459 -0.52400005
0.026490847 -0.085056603 -0.52500004
0.027670722 -0.085218608 -0.52600002
0.028854892 -0.085380621 -0.52700001
0.030043356 -0.085542634 -0.528
0.031177066 -0.085542634 -0.528
0.03231078 -0.085542634 -0.528
0.033381149 -0.085380621 -0.52700001
0.034447223 -0.085218608 -0.52600002
0.035576642 -0.085218608 -0.52600002
0.036636278 -0.085056603 -0.52500004
0.037835479 -0.085218608 -0.52600002
0.038964894 -0.085218608 -0.52600002
0.040094312 -0.085218608 -0.52600002
0.0413021 -0.085380621 -0.52700001
0.042433664 -0.085380621 -0.52700001
0.043565229 -0.085380621 -0.52700001
0.044696793 -0.085380621 -0.52700001
0.045741398 -0.085218608 -0.52600002
0.046870816 -0.085218608 -0.52600002
0.047908977 -0.085056603 -0.52500004
0.04903625 -0.085056603 -0.52500004
0.050163519 -0.085056603 -0.52500004
0.051388487 -0.085218608 -0.52600002
0.052517898 -0.085218608 -0.52600002
0.053647317 -0.085218608 -0.52600002
0.054776736 -0.085218608 -0.52600002
0.055906154 -0.085218608 -0.52600002
0.057035569 -0.085218608 -0.52600002
0.058275566 -0.085380621 -0.52700001
0.05940713 -0.085380621 -0.52700001
0.060423825 -0.085218608 -0.52600002
0.061553236 -0.085218608 -0.52600002
0.062682658 -0.085218608 -0.52600002
0.063812077 -0.085218608 -0.52600002
0.064818032 -0.085056603 -0.52500004
0.065819688 -0.08489459 -0.52400005
0.066817053 -0.08473257 -0.523
0.068069935 -0.08489459 -0.52400005
0.069459163 -0.085218608 -0.52600002
0.070722774 -0.085380621 -0.52700001
0.071990684 -0.085542634 -0.528
0.073124394 -0.085542634 -0.528
0.074258104 -0.085542634 -0.528
0.075249031 -0.085380621 -0.52700001
0.076380596 -0.085380621 -0.52700001
0.07751216 -0.085380621 -0.52700001
0.078643724 -0.085380621 -0.52700001
0.079775289 -0.085380621 -0.52700001
0.08106038 -0.085542634 -0.528
0.08219409 -0.085542634 -0.528
0.083169982 -0.085380621 -0.52700001
0.084301546 -0.085380621 -0.52700001
0.085271001 -0.085218608 -0.52600002
0.086236164 -0.085056603 -0.52500004
0.087197028 -0.08489459 -0.52400005
0.088322155 -0.08489459 -0.52400005
0.089447275 -0.08489459 -0.52400005
0.090572402 -0.08489459 -0.52400005
0.091697514 -0.08489459 -0.52400005
0.092999779 -0.085056603 -0.52500004
0.094127052 -0.085056603 -0.52500004
0.095254324 -0.085056603 -0.52500004
0.09638159 -0.085056603 -0.52500004
0.097508863 -0.085056603 -0.52500004
0.098636135 -0.085056603 -0.52500004
0.099763408 -0.085056603 -0.52500004
0.10089067 -0.085056603 -0.52500004
0.10221226 -0.085218608 -0.52600002
0.10353814 -0.085380621 -0.52700001
0.10466971 -0.085380621 -0.52700001
0.10600203 -0.085542634 -0.528
0.10713574 -0.085542634 -0.528
0.10826945 -0.085542634 -0.528
0.10919597 -0.085380621 -0.52700001
0.11032753 -0.085380621 -0.52700001
0.1112476 -0.085218608 -0.52600002
0.11237702 -0.085218608 -0.52600002
0.11329065 -0.085056603 -0.52500004
0.11441792 -0.085056603 -0.52500004
0.11554518 -0.085056603 -0.52500004
0.11667246 -0.085056603 -0.52500004
0.11779973 -0.085056603 -0.52500004
0.11892699 -0.085056603 -0.52500004
0.12005426 -0.085056603 -0.52500004
0.12118153 -0.085056603 -0.52500004
0.12230881 -0.085056603 -0.52500004
0.12343608 -0.085056603 -0.52500004
0.12456334 -0.085056603 -0.52500004
0.12569062 -0.085056603 -0.52500004
0.12705944 -0.085218608 -0.52600002
0.12794515 -0.085056603 -0.52500004
0.12931827 -0.085218608 -0.52600002
0.13069569 -0.085380621 -0.52700001
0.13182727 -0.085380621 -0.52700001
0.13321111 -0.085542634 -0.528
0.13409038 -0.085380621 -0.52700001
0.13547853 -0.085542634 -0.528
0.13687098 -0.085704654 -0.52900004
0.13774596 -0.085542634 -0.528
0.13887966 -0.085542634 -0.528
0.13974822 -0.085380621 -0.52700001
0.14061245 -0.085218608 -0.52600002
0.14201133 -0.085380621 -0.52700001
0.14314289 -0.085380621 -0.52700001
0.14427446 -0.085380621 -0.52700001
0.14513011 -0.085218608 -0.52600002
0.14653759 -0.085380621 -0.52700001
0.14794937 -0.085542634 -0.528
0.14936544 -0.085704654 -0.52900004
0.1505013 -0.085704654 -0.52900004
0.15163715 -0.085704654 -0.52900004
0.15277301 -0.085704654 -0.52900004
0.15419981 -0.08586666 -0.53000003
0.15533781 -0.08586666 -0.53000003
0.15618059 -0.085704654 -0.52900004
0.15731645 -0.085704654 -0.52900004
0.15845232 -0.085704654 -0.52900004
0.1589848 -0.085380621 -0.52700001
0.16011636 -0.085380621 -0.52700001
nan nan nan
0.16237949 -0.085380621 -0.52700001
0.16351105 -0.085380621 -0.52700001
0.16464262 -0.085380621 -0.52700001
0.1657742 -0.085380621 -0.52700001
0.16722246 -0.085542634 -0.528
0.16835617 -0.085542634 -0.528
0.16981089 -0.085704654 -0.52900004
0.17094675 -0.085704654 -0.52900004
0.17208262 -0.085704654 -0.52900004
0.17321847 -0.085704654 -0.52900004
0.17435433 -0.085704654 -0.52900004
0.17515843 -0.085542634 -0.528
0.17629215 -0.085542634 -0.528
0.17708983 -0.085380621 -0.52700001
0.17822139 -0.085380621 -0.52700001
0.17935295 -0.085380621 -0.52700001
0.18048452 -0.085380621 -0.52700001
0.18161608 -0.085380621 -0.52700001
0.18309441 -0.085542634 -0.528
0.18457706 -0.085704654 -0.52900004
0.18571292 -0.085704654 -0.52900004
0.18720199 -0.08586666 -0.53000003
0.18833999 -0.08586666 -0.53000003
0.189478 -0.08586666 -0.53000003
0.19061601 -0.08586666 -0.53000003
0.19139221 -0.085704654 -0.52900004
0.19252807 -0.085704654 -0.52900004
0.19366392 -0.085704654 -0.52900004
0.1947998 -0.085704654 -0.52900004
0.19593565 -0.085704654 -0.52900004
0.19744404 -0.08586666 -0.53000003
0.19858204 -0.08586666 -0.53000003
0.19972004 -0.08586666 -0.53000003
0.20085806 -0.08586666 -0.53000003
0.20199606 -0.08586666 -0.53000003
0.20313407 -0.08586666 -0.53000003
0.20427208 -0.08586666 -0.53000003
0.20579764 -0.086028673 -0.53100002
0.2073275 -0.086190686 -0.53200001
0.20846979 -0.086190686 -0.53200001
0.2096121 -0.086190686 -0.53200001
0.21115057 -0.086352706 -0.53300005
0.21229503 -0.086352706 -0.53300005
0.21343946 -0.086352706 -0.53300005
0.21458392 -0.086352706 -0.53300005
0.2161331 -0.086514711 -0.53400004
0.21727969 -0.086514711 -0.53400004
0.21883532 -0.086676724 -0.53500003
0.21998407 -0.086676724 -0.53500003
0.22154614 -0.086838737 -0.53600001
0.22269702 -0.086838737 -0.53600001
0.22426555 -0.087000743 -0.537
0.22541857 -0.087000743 -0.537
0.22699356 -0.087162763 -0.53800005
0.22814873 -0.087162763 -0.53800005
0.22973011 -0.087324776 -0.53900003
0.23131582 -0.087486789 -0.54000002
0.23290579 -0.087648794 -0.54100001
0.23406743 -0.087648794 -0.54100001
0.23522905 -0.087648794 -0.54100001
0.23682766 -0.087810814 -0.54200006
0.23799142 -0.087810814 -0.54200006
0.23959643 -0.087972827 -0.54300004
0.24076235 -0.087972827 -0.54300004
0.24281932 -0.088296846 -0.54500002
0.24443723 -0.088458858 -0.546
0.24605945 -0.088620879 -0.54700005
0.24723396 -0.088620879 -0.54700005
0.24886258 -0.088782892 -0.54800004
0.25049552 -0.088944897 -0.54900002
0.25167432 -0.088944897 -0.54900002
0.2528531 -0.088944897 -0.54900002
0.25403193 -0.088944897 -0.54900002
0.25521073 -0.088944897 -0.54900002
0.25685653 -0.08910691 -0.55000001
0.25850663 -0.089268923 -0.551
0.25968975 -0.089268923 -0.551
0.26181975 -0.089592949 -0.55300003
0.26348275 -0.089754961 -0.55400002
0.26467228 -0.089754961 -0.55400002
0.26586181 -0.089754961 -0.55400002
0.26705134 -0.089754961 -0.55400002
0.26872507 -0.089916974 -0.55500001
0.26991677 -0.089916974 -0.55500001
0.27159694 -0.090078995 -0.55600005
0.27279079 -0.090078995 -0.55600005
0.27447739 -0.090241 -0.55700004
0.27666318 -0.090565026 -0.55900002
0.27786347 -0.090565026 -0.55900002
0.27956295 -0.090727039 -0.56
0.28126675 -0.090889059 -0.56100005
0.28297484 -0.091051064 -0.56200004
0.28418157 -0.091051064 -0.56200004
0.28589609 -0.091213077 -0.56300002
0.28710493 -0.091213077 -0.56300002
0.2888259 -0.09137509 -0.56400001
0.29055116 -0.091537096 -0.565
nan nan nan
nan nan nan
nan nan nan
nan nan nan
nan nan nan
nan nan nan
nan nan nan
nan nan nan
nan nan nan
nan nan nan
nan nan nan
nan nan nan
nan nan nan
nan nan nan
nan nan nan
nan nan nan
nan nan nan
nan nan nan
nan nan nan
nan nan nan
nan nan nan
nan nan nan
nan nan nan
nan nan nan
nan nan nan
nan nan nan
nan nan nan
nan nan nan
nan nan nan
nan nan nan
nan nan nan
nan nan nan
nan nan nan
nan nan nan
nan nan nan
nan nan nan
nan nan nan
nan nan nan
nan nan nan
nan nan nan
nan nan nan
nan nan nan
nan nan nan
nan nan nan
nan nan nan
nan nan nan
nan nan nan
nan nan nan
nan nan nan
nan nan nan
nan nan nan
nan nan nan
nan nan nan
nan nan nan
nan nan nan
nan nan nan
nan nan nan
nan nan nan
nan nan nan
nan nan nan
nan nan nan
nan nan nan
nan nan nan
nan nan nan
-0.19595174 -0.085363075 -0.52000004
-0.19483522 -0.085363075 -0.52000004
-0.19371867 -0.085363075 -0.52000004
-0.19260214 -0.085363075 -0.52000004
-0.19111738 -0.085198916 -0.51900005
-0.19000299 -0.085198916 -0.51900005
-0.18852465 -0.08503475 -0.51800001
-0.1870506 -0.084870592 -0.51700002
-0.18558086 -0.084706433 -0.51600003
-0.18447292 -0.084706433 -0.51600003
-0.18300962 -0.084542274 -0.51500005
-0.18225703 -0.084706433 -0.51600003
-0.18114908 -0.084706433 -0.51600003
-0.17969222 -0.084542274 -0.51500005
-0.17893319 -0.084706433 -0.51600003
-0.17851448 -0.08503475 -0.51800001
-0.17774473 -0.085198916 -0.51900005
-0.17663035 -0.085198916 -0.51900005
-0.17551595 -0.085198916 -0.51900005
-0.17406552 -0.08503475 -0.51800001
-0.1732872 -0.085198916 -0.51900005
-0.1721728 -0.085198916 -0.51900005
-0.17105842 -0.085198916 -0.51900005
-0.16994402 -0.085198916 -0.51900005
-0.16915493 -0.085363075 -0.52000004
-0.16836153 -0.085527234 -0.52100003
-0.16724285 -0.085527234 -0.52100003
-0.16612418 -0.085527234 -0.52100003
-0.1646888 -0.085363075 -0.52000004
-0.16357227 -0.085363075 -0.52000004
-0.16245572 -0.085363075 -0.52000004
-0.16133919 -0.085363075 -0.52000004
-0.15991454 -0.085198916 -0.51900005
-0.15880015 -0.085198916 -0.51900005
-0.15798958 -0.085363075 -0.52000004
-0.15687305 -0.085363075 -0.52000004
-0.15605606 -0.085527234 -0.52100003
-0.15493736 -0.085527234 -0.52100003
-0.1538187 -0.085527234 -0.52100003
-0.15299308 -0.085691392 -0.52200001
-0.15187226 -0.085691392 -0.52200001
-0.15075143 -0.085691392 -0.52200001
-0.14991724 -0.085855544 -0.523
-0.14879428 -0.085855544 -0.523
-0.14738895 -0.085691392 -0.52200001
-0.14626813 -0.085691392 -0.52200001
-0.14514729 -0.085691392 -0.52200001
-0.14402646 -0.085691392 -0.52200001
-0.14263187 -0.085527234 -0.52100003
-0.1415132 -0.085527234 -0.52100003
-0.14039451 -0.085527234 -0.52100003
-0.13927583 -0.085527234 -0.52100003
-0.13842233 -0.085691392 -0.52200001
-0.13730149 -0.085691392 -0.52200001
-0.13591979 -0.085527234 -0.52100003
-0.1348011 -0.085527234 -0.52100003
-0.13368243 -0.085527234 -0.52100003
-0.13256374 -0.085527234 -0.52100003
-0.13144507 -0.085527234 -0.52100003
-0.13032639 -0.085527234 -0.52100003
-0.1289597 -0.085363075 -0.52000004
-0.12784316 -0.085363075 -0.52000004
nan nan nan
-0.1256101 -0.085363075 -0.52000004
nan nan nan
-0.12337703 -0.085363075 -0.52000004
-0.1222605 -0.085363075 -0.52000004
-0.12114396 -0.085363075 -0.52000004
-0.12002742 -0.085363075 -0.52000004
-0.11891089 -0.085363075 -0.52000004
-0.11779436 -0.085363075 -0.52000004
-0.11667783 -0.085363075 -0.52000004
-0.11556129 -0.085363075 -0.52000004
-0.11444476 -0.085363075 -0.52000004
-0.11354616 -0.085527234 -0.52100003
-0.11242747 -0.085527234 -0.52100003
-0.11130879 -0.085527234 -0.52100003
-0.11040161 -0.085691392 -0.52200001
-0.10907143 -0.085527234 -0.52100003
-0.10815995 -0.085691392 -0.52200001
-0.10683407 -0.085527234 -0.52100003
-0.10571539 -0.085527234 -0.52100003
-0.1045967 -0.085527234 -0.52100003
-0.10347802 -0.085527234 -0.52100003
-0.10235934 -0.085527234 -0.52100003
-0.10124066 -0.085527234 -0.52100003
-0.10012197 -0.085527234 -0.52100003
-0.099193327 -0.085691392 -0.52200001
-0.098072499 -0.085691392 -0.52200001
-0.096951663 -0.085691392 -0.52200001
-0.095830835 -0.085691392 -0.52200001
-0.094710007 -0.085691392 -0.52200001
-0.093589179 -0.085691392 -0.52200001
-0.092468351 -0.085691392 -0.52200001
-0.091347523 -0.085691392 -0.52200001
-0.090226695 -0.085691392 -0.52200001
-0.089105867 -0.085691392 -0.52200001
-0.087985039 -0.085691392 -0.52200001
-0.086864211 -0.085691392 -0.52200001
-0.085907638 -0.085855544 -0.523
-0.084784664 -0.085855544 -0.523
-0.083661683 -0.085855544 -0.523
-0.082696535 -0.086019717 -0.52400005
-0.081415735 -0.085855544 -0.523
-0.080139242 -0.085691392 -0.52200001
-0.079018414 -0.085691392 -0.52200001
-0.077748358 -0.085527234 -0.52100003
-0.076629676 -0.085527234 -0.52100003
-0.075510994 -0.085527234 -0.52100003
-0.074392311 -0.085527234 -0.52100003
-0.073273629 -0.085527234 -0.52100003
-0.072154947 -0.085527234 -0.52100003
-0.071036272 -0.085527234 -0.52100003
-0.069917589 -0.085527234 -0.52100003
-0.068798907 -0.085527234 -0.52100003
-0.067810126 -0.085691392 -0.52200001
-0.066689298 -0.085691392 -0.52200001
-0.065568462 -0.085691392 -0.52200001
-0.064447641 -0.085691392 -0.52200001
-0.063205495 -0.085527234 -0.52100003
-0.062086813 -0.085527234 -0.52100003
-0.060968131 -0.085527234 -0.52100003
-0.059849452 -0.085527234 -0.52100003
-0.05873077 -0.085527234 -0.52100003
-0.057722665 -0.085691392 -0.52200001
-0.056601837 -0.085691392 -0.52200001
-0.055587295 -0.085855544 -0.523
-0.054568462 -0.086019717 -0.52400005
-0.053341344 -0.085855544 -0.523
-0.052218366 -0.085855544 -0.523
-0.050997697 -0.085691392 -0.52200001
-0.049781319 -0.085527234 -0.52100003
-0.048662636 -0.085527234 -0.52100003
-0.047543954 -0.085527234 -0.52100003
-0.046425276 -0.085527234 -0.52100003
-0.045306593 -0.085527234 -0.52100003
-0.044272725 -0.085691392 -0.52200001
-0.043151896 -0.085691392 -0.52200001
-0.042031068 -0.085691392 -0.52200001
-0.04091024 -0.085691392 -0.52200001
-0.039789412 -0.085691392 -0.52200001
-0.03866858 -0.085691392 -0.52200001
-0.037547756 -0.085691392 -0.52200001
-0.036426928 -0.085691392 -0.52200001
-0.035306096 -0.085691392 -0.52200001
-0.034185268 -0.085691392 -0.52200001
-0.033001103 -0.085527234 -0.52100003
-0.03188242 -0.085527234 -0.52100003
-0.030763736 -0.085527234 -0.52100003
-0.029645056 -0.085527234 -0.52100003
-0.028526373 -0.085527234 -0.52100003
-0.027407693 -0.085527234 -0.52100003
-0.02628901 -0.085527234 -0.52100003
-0.02517033 -0.085527234 -0.52100003
-0.024097811 -0.085691392 -0.52200001
-0.022976985 -0.085691392 -0.52200001
-0.021856155 -0.085691392 -0.52200001
-0.020735327 -0.085691392 -0.52200001
-0.019614499 -0.085691392 -0.52200001
-0.018493671 -0.085691392 -0.52200001
-0.017372841 -0.085691392 -0.52200001
-0.016252013 -0.085691392 -0.52200001
-0.015160171 -0.085855544 -0.523
-0.014064037 -0.086019717 -0.52400005
-0.012963606 -0.086183868 -0.52500004
-0.011836336 -0.086183868 -0.52500004
-0.010709066 -0.086183868 -0.52500004
-0.0095817959 -0.086183868 -0.52500004
-0.0084545258 -0.086183868 -0.52500004
-0.007313299 -0.086019717 -0.52400005
-0.0061881761 -0.086019717 -0.52400005
-0.0050630532 -0.086019717 -0.52400005
-0.0039304146 -0.085855544 -0.523
-0.0028128072 -0.086019717 -0.52400005
-0.0016876844 -0.086019717 -0.52400005
-0.00056256144 -0.086019717 -0.52400005
0.00056256144 -0.086019717 -0.52400005
0.0016844635 -0.085855544 -0.523
0.0028074391 -0.085855544 -0.523
nan nan nan
0.0050437283 -0.085691392 -0.52200001
nan nan nan
nan nan nan
0.0084062144 -0.085691392 -0.52200001
0.0095270425 -0.085691392 -0.52200001
0.010668269 -0.085855544 -0.523
0.011813791 -0.086019717 -0.52400005
0.012938914 -0.086019717 -0.52400005
0.014037197 -0.085855544 -0.523
0.01518916 -0.086019717 -0.52400005
0.016314283 -0.086019717 -0.52400005
0.017406123 -0.085855544 -0.523
0.018529098 -0.085855544 -0.523
0.019614499 -0.085691392 -0.52200001
0.020735327 -0.085691392 -0.52200001
0.021898024 -0.085855544 -0.523
0.022976985 -0.085691392 -0.52200001
0.024097811 -0.085691392 -0.52200001
0.025266953 -0.085855544 -0.523
0.026389927 -0.085855544 -0.523
0.027512904 -0.085855544 -0.523
0.028690634 -0.086019717 -0.52400005
0.029815758 -0.086019717 -0.52400005
0.03088183 -0.085855544 -0.523
0.032004807 -0.085855544 -0.523
0.033127785 -0.085855544 -0.523
0.034316249 -0.086019717 -0.52400005
0.035441373 -0.086019717 -0.52400005
0.03649671 -0.085855544 -0.523
0.037619684 -0.085855544 -0.523
0.038816739 -0.086019717 -0.52400005
0.039941862 -0.086019717 -0.52400005
0.041066986 -0.086019717 -0.52400005
0.042192113 -0.086019717 -0.52400005
0.043317232 -0.086019717 -0.52400005
0.044442356 -0.086019717 -0.52400005
0.045567479 -0.086019717 -0.52400005
0.046692602 -0.086019717 -0.52400005
0.047817722 -0.086019717 -0.52400005
0.048942845 -0.086019717 -0.52400005
0.050067972 -0.086019717 -0.52400005
0.051193096 -0.086019717 -0.52400005
0.052318215 -0.086019717 -0.52400005
0.053443339 -0.086019717 -0.52400005
0.054568462 -0.086019717 -0.52400005
0.055693585 -0.086019717 -0.52400005
0.056818705 -0.086019717 -0.52400005
0.057943828 -0.086019717 -0.52400005
0.059068955 -0.086019717 -0.52400005
0.060194079 -0.086019717 -0.52400005
0.061202172 -0.085855544 -0.523
0.062205981 -0.085691392 -0.52200001
0.063326813 -0.085691392 -0.52200001
0.064447641 -0.085691392 -0.52200001
0.065568462 -0.085691392 -0.52200001
0.066561542 -0.085527234 -0.52100003
0.067680225 -0.085527234 -0.52100003
0.068798907 -0.085527234 -0.52100003
0.069917589 -0.085527234 -0.52100003
0.07117261 -0.085691392 -0.52200001
0.072431929 -0.085855544 -0.523
0.073554903 -0.085855544 -0.523
0.074820675 -0.086019717 -0.52400005
0.075945795 -0.086019717 -0.52400005
0.077070922 -0.086019717 -0.52400005
0.078196041 -0.086019717 -0.52400005
0.079321168 -0.086019717 -0.52400005
0.080599815 -0.086183868 -0.52500004
0.081727087 -0.086183868 -0.52500004
0.082854345 -0.086183868 -0.52500004
0.083821654 -0.086019717 -0.52400005
nan nan nan
0.085907638 -0.085855544 -0.523
0.086864211 -0.085691392 -0.52200001
0.087985039 -0.085691392 -0.52200001
0.089105867 -0.085691392 -0.52200001
0.090399541 -0.085855544 -0.523
0.091522515 -0.085855544 -0.523
0.092645489 -0.085855544 -0.523
0.093768463 -0.085855544 -0.523
0.094891444 -0.085855544 -0.523
0.096014418 -0.085855544 -0.523
0.097137399 -0.085855544 -0.523
0.098260373 -0.085855544 -0.523
0.099383347 -0.085855544 -0.523
0.10050632 -0.085855544 -0.523
0.10162929 -0.085855544 -0.523
0.10294875 -0.086019717 -0.52400005
0.10407387 -0.086019717 -0.52400005
0.10499822 -0.085855544 -0.523
0.1059183 -0.085691392 -0.52200001
0.10724418 -0.085855544 -0.523
0.10836715 -0.085855544 -0.523
0.10928077 -0.085691392 -0.52200001
0.11040161 -0.085691392 -0.52200001
0.11152244 -0.085691392 -0.52200001
0.11264326 -0.085691392 -0.52200001
0.11376409 -0.085691392 -0.52200001
nan nan nan
nan nan nan
nan nan nan
nan nan nan
0.11936823 -0.085691392 -0.52200001
0.12048906 -0.085691392 -0.52200001
0.12160989 -0.085691392 -0.52200001
0.12273072 -0.085691392 -0.52200001
0.12385155 -0.085691392 -0.52200001
0.12521179 -0.085855544 -0.523
0.12657633 -0.086019717 -0.52400005
0.12745774 -0.085855544 -0.523
0.1285807 -0.085855544 -0.523
0.1299517 -0.086019717 -0.52400005
0.13107683 -0.086019717 -0.52400005
0.13220194 -0.086019717 -0.52400005
0.13332707 -0.086019717 -0.52400005
0.13445219 -0.086019717 -0.52400005
0.13583604 -0.086183868 -0.52500004
0.13696332 -0.086183868 -0.52500004
0.13782756 -0.086019717 -0.52400005
0.13868751 -0.085855544 -0.523
0.13981047 -0.085855544 -0.523
0.14120293 -0.086019717 -0.52400005
0.14232805 -0.086019717 -0.52400005
0.14317939 -0.085855544 -0.523
0.14430237 -0.085855544 -0.523
0.14542535 -0.085855544 -0.523
0.14654833 -0.085855544 -0.523
0.14795366 -0.086019717 -0.52400005
0.1490788 -0.086019717 -0.52400005
0.15049055 -0.086183868 -0.52500004
0.15219541 -0.086512186 -0.52700001
0.15361792 -0.086676344 -0.528
0.15475163 -0.086676344 -0.528
0.1555901 -0.086512186 -0.52700001
0.1561269 -0.086183868 -0.52500004
0.15695466 -0.086019717 -0.52400005
0.15777808 -0.085855544 -0.523
0.15890105 -0.085855544 -0.523
0.15971807 -0.085691392 -0.52200001
0.16083889 -0.085691392 -0.52200001
0.16226998 -0.085855544 -0.523
0.16339296 -0.085855544 -0.523
0.16483052 -0.086019717 -0.52400005
0.16595563 -0.086019717 -0.52400005
0.16771847 -0.086348027 -0.52600002
0.16884787 -0.086348027 -0.52600002
0.17030044 -0.086512186 -0.52700001
0.171432 -0.086512186 -0.52700001
0.17256357 -0.086512186 -0.52700001
0.17369513 -0.086512186 -0.52700001
0.17449497 -0.086348027 -0.52600002
0.17562439 -0.086348027 -0.52600002
0.1767538 -0.086348027 -0.52600002
0.17754503 -0.086183868 -0.52500004
0.17867231 -0.086183868 -0.52500004
0.17979957 -0.086183868 -0.52500004
0.18092686 -0.086183868 -0.52500004
0.18240088 -0.086348027 -0.52600002
0.1835303 -0.086348027 -0.52600002
0.18465972 -0.086348027 -0.52600002
0.18578914 -0.086348027 -0.52600002
0.1872739 -0.086512186 -0.52700001
0.18840547 -0.086512186 -0.52700001
0.18917739 -0.086348027 -0.52600002
0.1903068 -0.086348027 -0.52600002
0.19143623 -0.086348027 -0.52600002
0.19293173 -0.086512186 -0.52700001
0.19406331 -0.086512186 -0.52700001
0.19556524 -0.086676344 -0.528
0.19669895 -0.086676344 -0.528
0.19820736 -0.08684051 -0.52900004
0.19934322 -0.08684051 -0.52900004
0.20047909 -0.08684051 -0.52900004
0.20161493 -0.08684051 -0.52900004
0.2027508 -0.08684051 -0.52900004
0.20388666 -0.08684051 -0.52900004
0.20541009 -0.087004669 -0.53000003
0.20693779 -0.087168828 -0.53100002
0.20807794 -0.087168828 -0.53100002
0.2096121 -0.087332986 -0.53200001
0.21075439 -0.087332986 -0.53200001
0.2118967 -0.087332986 -0.53200001
0.21343946 -0.087497152 -0.53300005
0.21458392 -0.087497152 -0.53300005
0.21572837 -0.087497152 -0.53300005
0.21727969 -0.087661311 -0.53400004
0.21883532 -0.08782547 -0.53500003
0.22039524 -0.087989628 -0.53600001
0.22154614 -0.087989628 -0.53600001
0.22269702 -0.087989628 -0.53600001
0.22426555 -0.08815378 -0.537
0.22583836 -0.088317953 -0.53800005
0.22699356 -0.088317953 -0.53800005
0.2285728 -0.088482112 -0.53900003
0.22973011 -0.088482112 -0.53900003
0.23174417 -0.088810422 -0.54100001
0.23290579 -0.088810422 -0.54100001
0.23406743 -0.088810422 -0.54100001
0.23566388 -0.088974588 -0.54200006
0.23682766 -0.088974588 -0.54200006
0.23843051 -0.089138746 -0.54300004
0.23959643 -0.089138746 -0.54300004
0.24120574 -0.089302905 -0.54400003
0.24281932 -0.089467064 -0.54500002
0.24443723 -0.089631222 -0.546
0.24605945 -0.089795388 -0.54700005
0.24723396 -0.089795388 -0.54700005
0.24886258 -0.089959547 -0.54800004
0.25049552 -0.090123706 -0.54900002
0.25167432 -0.090123706 -0.54900002
0.2528531 -0.090123706 -0.54900002
0.25403193 -0.090123706 -0.54900002
0.25521073 -0.090123706 -0.54900002
0.25685653 -0.090287864 -0.55000001
0.25850663 -0.090452023 -0.551
0.26063237 -0.090780348 -0.55300003
0.26229319 -0.090944499 -0.55400002
0.26348275 -0.090944499 -0.55400002
0.26515001 -0.091108657 -0.55500001
0.26634169 -0.091108657 -0.55500001
0.26753339 -0.091108657 -0.55500001
0.26920927 -0.091272824 -0.55600005
0.27040312 -0.091272824 -0.55600005
0.27159694 -0.091272824 -0.55600005
0.27328143 -0.091436982 -0.55700004
0.27497014 -0.091601141 -0.55800003
0.27666318 -0.091765299 -0.55900002
0.27836055 -0.091929458 -0.56
0.2800622 -0.092093624 -0.56100005
0.28176811 -0.092257783 -0.56200004
0.28347835 -0.092421941 -0.56300002
0.28468722 -0.092421941 -0.56300002
0.28589609 -0.092421941 -0.56300002
0.28761488 -0.0925861 -0.56400001
0.28933799 -0.092750259 -0.565
0.29055116 -0.092750259 -0.565
nan nan nan
nan nan nan
nan nan nan
nan nan nan
nan nan nan
nan nan nan
nan nan nan
nan nan nan
nan nan nan
nan nan nan
nan nan nan
nan nan nan
nan nan nan
nan nan nan
nan nan nan
nan nan nan
nan nan nan
nan nan nan
nan nan nan
nan nan nan
nan nan nan
nan nan nan
nan nan nan
nan nan nan
nan nan nan
nan nan nan
nan nan nan
nan nan nan
nan nan nan
nan nan nan
nan nan nan
nan nan nan
nan nan nan
nan nan nan
nan nan nan
nan nan nan
nan nan nan
nan nan nan
nan nan nan
nan nan nan
nan nan nan
nan nan nan
nan nan nan
nan nan nan
nan nan nan
nan nan nan
nan nan nan
nan nan nan
nan nan nan
nan nan nan
nan nan nan
nan nan nan
nan nan nan
nan nan nan
nan nan nan
nan nan nan
nan nan nan
nan nan nan
nan nan nan
nan nan nan
nan nan nan
nan nan nan
nan nan nan
nan nan nan
nan nan nan
-0.19371116 -0.085980684 -0.51700002
-0.19260105 -0.085980684 -0.51700002
-0.19149098 -0.085980684 -0.51700002
-0.19001265 -0.085814379 -0.51600003
-0.18853861 -0.085648075 -0.51500005
-0.18743281 -0.085648075 -0.51500005
-0.1859652 -0.085481763 -0.514
nan nan nan
nan nan nan
nan nan nan
-0.18155059 -0.085481763 -0.514
-0.18044694 -0.085481763 -0.514
nan nan nan
nan nan nan
-0.17713599 -0.085481763 -0.514
-0.17603233 -0.085481763 -0.514
-0.17492868 -0.085481763 -0.514
-0.17416322 -0.085648075 -0.51500005
-0.17305744 -0.085648075 -0.51500005
-0.17195164 -0.085648075 -0.51500005
-0.17084584 -0.085648075 -0.51500005
-0.16974004 -0.085648075 -0.51500005
-0.16863424 -0.085648075 -0.51500005
-0.16785374 -0.085814379 -0.51600003
-0.16706893 -0.085980684 -0.51700002
-0.16595885 -0.085980684 -0.51700002
-0.16516761 -0.086146988 -0.51800001
-0.16405536 -0.086146988 -0.51800001
-0.16262858 -0.085980684 -0.51700002
-0.16183089 -0.086146988 -0.51800001
-0.16040838 -0.085980684 -0.51700002
-0.15929829 -0.085980684 -0.51700002
-0.15818819 -0.085980684 -0.51700002
-0.1570781 -0.085980684 -0.51700002
-0.15626968 -0.086146988 -0.51800001
-0.155457 -0.086313307 -0.51900005
-0.15434261 -0.086313307 -0.51900005
-0.15352346 -0.086479612 -0.52000004
-0.15240692 -0.086479612 -0.52000004
-0.15158133 -0.086645916 -0.52100003
-0.15046263 -0.086645916 -0.52100003
-0.14934397 -0.086645916 -0.52100003
-0.14822529 -0.086645916 -0.52100003
-0.1471066 -0.086645916 -0.52100003
-0.14598793 -0.086645916 -0.52100003
-0.14486924 -0.086645916 -0.52100003
-0.14347465 -0.086479612 -0.52000004
-0.14235811 -0.086479612 -0.52000004
-0.14124158 -0.086479612 -0.52000004
-0.14012504 -0.086479612 -0.52000004
-0.13900851 -0.086479612 -0.52000004
-0.13789198 -0.086479612 -0.52000004
-0.13677543 -0.086479612 -0.52000004
-0.1356589 -0.086479612 -0.52000004
-0.13454236 -0.086479612 -0.52000004
-0.13316925 -0.086313307 -0.51900005
-0.1318004 -0.086146988 -0.51800001
-0.13094048 -0.086313307 -0.51900005
-0.1298261 -0.086313307 -0.51900005
-0.12846369 -0.086146988 -0.51800001
-0.12735145 -0.086146988 -0.51800001
-0.12648292 -0.086313307 -0.51900005
-0.12536855 -0.086313307 -0.51900005
-0.12425416 -0.086313307 -0.51900005
-0.12313977 -0.086313307 -0.51900005
-0.12202538 -0.086313307 -0.51900005
-0.12067802 -0.086146988 -0.51800001
-0.11956577 -0.086146988 -0.51800001
-0.11799619 -0.085814379 -0.51600003
-0.11688824 -0.085814379 -0.51600003
-0.1157803 -0.085814379 -0.51600003
-0.11489458 -0.085980684 -0.51700002
-0.11378449 -0.085980684 -0.51700002
-0.11311029 -0.086313307 -0.51900005
-0.1119959 -0.086313307 -0.51900005
-0.11109515 -0.086479612 -0.52000004
-0.11019011 -0.086645916 -0.52100003
-0.10886208 -0.086479612 -0.52000004
-0.10774555 -0.086479612 -0.52000004
-0.10662902 -0.086479612 -0.52000004
-0.10551248 -0.086479612 -0.52000004
-0.10439595 -0.086479612 -0.52000004
-0.1030808 -0.086313307 -0.51900005
-0.10176994 -0.086146988 -0.51800001
-0.10065769 -0.086146988 -0.51800001
-0.099545456 -0.086146988 -0.51800001
-0.098623253 -0.086313307 -0.51900005
-0.097696744 -0.086479612 -0.52000004
-0.096765935 -0.086645916 -0.52100003
-0.095647253 -0.086645916 -0.52100003
-0.094528571 -0.086645916 -0.52100003
-0.093409888 -0.086645916 -0.52100003
-0.092291206 -0.086645916 -0.52100003
-0.091172524 -0.086645916 -0.52100003
-0.090053849 -0.086645916 -0.52100003
-0.088935167 -0.086645916 -0.52100003
-0.087816484 -0.086645916 -0.52100003
-0.086697802 -0.086645916 -0.52100003
-0.08557912 -0.086645916 -0.52100003
-0.084460437 -0.086645916 -0.52100003
-0.083341755 -0.086645916 -0.52100003
-0.082223073 -0.086645916 -0.52100003
-0.081104398 -0.086645916 -0.52100003
-0.079985715 -0.086645916 -0.52100003
-0.07871566 -0.086479612 -0.52000004
-0.077599131 -0.086479612 -0.52000004
-0.076482594 -0.086479612 -0.52000004
-0.075366057 -0.086479612 -0.52000004
-0.074249521 -0.086479612 -0.52000004
-0.073132984 -0.086479612 -0.52000004
-0.072154947 -0.086645916 -0.52100003
-0.071036272 -0.086645916 -0.52100003
-0.069917589 -0.086645916 -0.52100003
-0.068798907 -0.086645916 -0.52100003
-0.067680225 -0.086645916 -0.52100003
-0.066561542 -0.086645916 -0.52100003
-0.06544286 -0.086645916 -0.52100003
-0.064324178 -0.086645916 -0.52100003
-0.063205495 -0.086645916 -0.52100003
-0.061967649 -0.086479612 -0.52000004
-0.060851112 -0.086479612 -0.52000004
-0.059734579 -0.086479612 -0.52000004
-0.058618046 -0.086479612 -0.52000004
-0.05750151 -0.086479612 -0.52000004
-0.056493405 -0.086645916 -0.52100003
-0.055374727 -0.086645916 -0.52100003
-0.054360181 -0.086812221 -0.52200001
-0.053239353 -0.086812221 -0.52200001
-0.05201868 -0.086645916 -0.52100003
-0.050900001 -0.086645916 -0.52100003
-0.049685773 -0.086479612 -0.52000004
-0.048569236 -0.086479612 -0.52000004
-0.047452703 -0.086479612 -0.52000004
-0.04633617 -0.086479612 -0.52000004
-0.045219634 -0.086479612 -0.52000004
-0.044187911 -0.086645916 -0.52100003
-0.043069229 -0.086645916 -0.52100003
-0.04195055 -0.086645916 -0.52100003
-0.04091024 -0.086812221 -0.52200001
-0.039789412 -0.086812221 -0.52200001
-0.03866858 -0.086812221 -0.52200001
-0.037475828 -0.086645916 -0.52100003
-0.036357146 -0.086645916 -0.52100003
-0.035170827 -0.086479612 -0.52000004
-0.034054291 -0.086479612 -0.52000004
-0.032937761 -0.086479612 -0.52000004
-0.031760029 -0.086313307 -0.51900005
-0.030645642 -0.086313307 -0.51900005
-0.029531257 -0.086313307 -0.51900005
-0.028416868 -0.086313307 -0.51900005
-0.027355088 -0.086479612 -0.52000004
-0.026238553 -0.086479612 -0.52000004
-0.02512202 -0.086479612 -0.52000004
-0.024051648 -0.086645916 -0.52100003
-0.022932967 -0.086645916 -0.52100003
-0.021814285 -0.086645916 -0.52100003
-0.020695604 -0.086645916 -0.52100003
-0.019576922 -0.086645916 -0.52100003
-0.018458243 -0.086645916 -0.52100003
-0.017339561 -0.086645916 -0.52100003
-0.016220881 -0.086645916 -0.52100003
-0.015102198 -0.086645916 -0.52100003
-0.014010357 -0.086812221 -0.52200001
-0.012889528 -0.086812221 -0.52200001
-0.011791245 -0.086978525 -0.523
-0.010668269 -0.086978525 -0.523
-0.0095270425 -0.086812221 -0.52200001
-0.0084223179 -0.086978525 -0.523
-0.0072853854 -0.086812221 -0.52200001
-0.0061645568 -0.086812221 -0.52200001
-0.0050437283 -0.086812221 -0.52200001
-0.0039228997 -0.086812221 -0.52200001
-0.0028020712 -0.086812221 -0.52200001
-0.0016812427 -0.086812221 -0.52200001
-0.00056041422 -0.086812221 -0.52200001
0.00056041422 -0.086812221 -0.52200001
0.001678022 -0.086645916 -0.52100003
0.0027967033 -0.086645916 -0.52100003
0.0039153849 -0.086645916 -0.52100003
0.0050244038 -0.086479612 -0.52000004
0.006140938 -0.086479612 -0.52000004
0.0072574723 -0.086479612 -0.52000004
0.0083740065 -0.086479612 -0.52000004
0.0094905412 -0.086479612 -0.52000004
0.010607075 -0.086479612 -0.52000004
0.011746154 -0.086645916 -0.52100003
0.012864836 -0.086645916 -0.52100003
0.013983517 -0.086645916 -0.52100003
0.015131185 -0.086812221 -0.52200001
0.016252013 -0.086812221 -0.52200001
0.017339561 -0.086645916 -0.52100003
0.018458243 -0.086645916 -0.52100003
0.019576922 -0.086645916 -0.52100003
0.020695604 -0.086645916 -0.52100003
0.021814285 -0.086645916 -0.52100003
0.022932967 -0.086645916 -0.52100003
0.024051648 -0.086645916 -0.52100003
0.02517033 -0.086645916 -0.52100003
0.02628901 -0.086645916 -0.52100003
0.027407693 -0.086645916 -0.52100003
0.028526373 -0.086645916 -0.52100003
0.029645056 -0.086645916 -0.52100003
0.030763736 -0.086645916 -0.52100003
0.03188242 -0.086645916 -0.52100003
0.033001103 -0.086645916 -0.52100003
0.034185268 -0.086812221 -0.52200001
0.035306096 -0.086812221 -0.52200001
0.036426928 -0.086812221 -0.52200001
0.037547756 -0.086812221 -0.52200001
0.03866858 -0.086812221 -0.52200001
0.039789412 -0.086812221 -0.52200001
0.04091024 -0.086812221 -0.52200001
0.042031068 -0.086812221 -0.52200001
0.043151896 -0.086812221 -0.52200001
0.044272725 -0.086812221 -0.52200001
0.045393553 -0.086812221 -0.52200001
0.04660349 -0.086978525 -0.523
0.047726464 -0.086978525 -0.523
0.048849441 -0.086978525 -0.523
0.049876869 -0.086812221 -0.52200001
0.050997697 -0.086812221 -0.52200001
0.052118525 -0.086812221 -0.52200001
0.053239353 -0.086812221 -0.52200001
0.054360181 -0.086812221 -0.52200001
0.055374727 -0.086645916 -0.52100003
0.056493405 -0.086645916 -0.52100003
0.057612088 -0.086645916 -0.52100003
0.058843497 -0.086812221 -0.52200001
0.059964325 -0.086812221 -0.52200001
0.060968131 -0.086645916 -0.52100003
0.062086813 -0.086645916 -0.52100003
0.063084185 -0.086479612 -0.52000004
0.064200714 -0.086479612 -0.52000004
0.065317251 -0.086479612 -0.52000004
0.066306025 -0.086313307 -0.51900005
0.067420416 -0.086313307 -0.51900005
0.068534806 -0.086313307 -0.51900005
0.06964919 -0.086313307 -0.51900005
0.070899926 -0.086479612 -0.52000004
0.072154947 -0.086645916 -0.52100003
0.073273629 -0.086645916 -0.52100003
0.074392311 -0.086645916 -0.52100003
0.075655922 -0.086812221 -0.52200001
0.07677675 -0.086812221 -0.52200001
0.077897578 -0.086812221 -0.52200001
0.079018414 -0.086812221 -0.52200001
0.080292761 -0.086978525 -0.523
0.081415735 -0.086978525 -0.523
0.082538709 -0.086978525 -0.523
0.083661683 -0.086978525 -0.523
0.084622547 -0.086812221 -0.52200001
0.085743383 -0.086812221 -0.52200001
0.086864211 -0.086812221 -0.52200001
0.087816484 -0.086645916 -0.52100003
0.088935167 -0.086645916 -0.52100003
