# .PCD v0.7 - Point Cloud Data file format
VERSION 0.7
FIELDS x y z rgba
SIZE 4 4 4 4
TYPE F F F U
COUNT 1 1 1 1
WIDTH 1080
HEIGHT 1
VIEWPOINT 0 0 0 1 0 0 0
POINTS 1080
DATA ascii
0.1150765 0.61169761 -0.22144639 4283518550
0.1143786 0.6115312 -0.2215219 4283255122
0.1134126 0.6109367 -0.22167569 4282465865
0.1140016 0.6112687 -0.2215791 4282465607
0.1126553 0.61104453 -0.22108871 4282794830
0.13045479 0.61149353 -0.2194781 4285358684
0.1315816 0.61185062 -0.21923409 4285227354
0.12945651 0.6114772 -0.219905 4285359454
0.1283098 0.61114413 -0.2199848 4285293662
0.1289628 0.6119743 -0.2204784 4285557088
0.1272182 0.61061919 -0.2198572 4285095772
0.12614579 0.61056769 -0.22013991 4284963931
0.1221853 0.61035079 -0.220549 4284964702
0.1208928 0.6103943 -0.220605 4285030240
0.1217074 0.6111623 -0.22104441 4284635999
0.1197383 0.61050081 -0.2206841 4284964706
0.1204723 0.61115378 -0.221035 4284569950
0.1189476 0.6107654 -0.2208503 4285096550
0.1175312 0.61079627 -0.22094069 4285228393
0.1166179 0.6113717 -0.2212299 4285031014
0.1116466 0.61096489 -0.2201518 4283912792
0.1104179 0.61090291 -0.21942461 4284505184
0.1097295 0.61090511 -0.2191022 4284702822
0.1320398 0.6114701 -0.21845479 4285162074
0.13295791 0.61182451 -0.2180714 4286148967
0.13255849 0.61220098 -0.21890099 4285622879
0.1089294 0.61094809 -0.21872251 4284637030
0.1076014 0.6109705 -0.2182662 4284636774
0.1069402 0.61030197 -0.2180514 4284899432
0.1332677 0.6115548 -0.21715429 4286806896
0.13410801 0.6119976 -0.2167052 4287399287
0.1338205 0.6122449 -0.21763159 4287004529
0.106313 0.6109392 -0.2178416 4284702567
0.1069246 0.61097932 -0.2180721 4284242277
0.1051907 0.6109674 -0.21745519 4284899431
0.1035696 0.6109786 -0.2170103 4285293672
0.1022115 0.61088669 -0.2167441 4285556840
0.1343073 0.61185151 -0.21565551 4287794558
0.1349335 0.6123811 -0.21566901 4288255106
0.134822 0.61248869 -0.21626189 4287859837
0.1336751 0.61135 -0.215 4287663229
0.1015402 0.61021799 -0.2165826 4285951079
0.1006181 0.61054921 -0.2164015 4285556584
0.1013336 0.61123371 -0.2165765 4285491048
0.099764399 0.6109401 -0.21622001 4285622120
0.0984786 0.61074859 -0.215931 4285818727
0.096855402 0.61124241 -0.21564201 4285884003
0.095439203 0.6107437 -0.21547291 4285816414
0.094096199 0.61014229 -0.2154481 4285814106
0.0926985 0.61067909 -0.2153973 4285548625
0.091358297 0.61085927 -0.2153974 4285217610
0.0903349 0.61051512 -0.2154673 4284952901
0.087329499 0.61042249 -0.21558531 4285016897
0.076980501 0.61078137 -0.2147658 4285283143
0.1343527 0.6118269 -0.2145893 4288584328
0.1349595 0.61236268 -0.21504819 4288650632
0.1337077 0.61140388 -0.21414649 4288189572
0.0950775 0.6118049 -0.21535739 4285817184
0.095918201 0.6116724 -0.2154732 4285752676
0.094076701 0.6112504 -0.2153466 4285749082
0.093097702 0.61174458 -0.2152555 4285483346
0.091946602 0.61171401 -0.2152455 4285284428
0.075938798 0.61052942 -0.2147053 4285149503
0.074732699 0.61071539 -0.21442319 4285214782
0.073451102 0.61084008 -0.21415471 4285211956
0.072441302 0.61045611 -0.21410041 4285079343
0.071291 0.61029041 -0.21394549 4285079598
0.058089402 0.61045277 -0.2137094 4284032295
0.0592095 0.61032748 -0.2137484 4284032040
0.057382099 0.61016393 -0.21393479 4283968040
0.056352701 0.61028862 -0.21389981 4283903530
0.053114701 0.61032361 -0.2137889 4283972919
0.053824201 0.6103974 -0.21375941 4283906870
0.13330241 0.6112926 -0.2131791 4288781709
0.13424359 0.61185449 -0.21358339 4289044879
0.071845599 0.61118001 -0.2137049 4285078572
0.072755598 0.6115557 -0.2137326 4285078059
0.070893496 0.61124623 -0.2134793 4285144363
0.069674298 0.61125553 -0.2132673 4285209640
0.0681943 0.61128718 -0.2130914 4285143846
0.066670001 0.61082131 -0.2131913 4285143589
0.065343 0.61035961 -0.21336339 4285013029
0.064035401 0.61085659 -0.2132383 4284947492
0.0624667 0.61130542 -0.21313649 4284816932
0.060863901 0.61119401 -0.21324541 4284686371
0.059722099 0.61101121 -0.2133619 4284490276
0.058403201 0.61126471 -0.2131983 4284556580
0.056966901 0.61096931 -0.2133566 4284623142
0.055506799 0.61092371 -0.2133259 4284624682
0.054266199 0.61097771 -0.2131429 4284953902
0.053056799 0.61077398 -0.213182 4284956213
0.051663801 0.6106661 -0.2130249 4285416248
0.050610799 0.61075938 -0.21252871 4285811002
0.049522702 0.61052227 -0.21253011 4286073657
0.13322289 0.61149251 -0.2119623 4289307538
0.1340632 0.61195308 -0.2125065 4289505430
0.132384 0.61113161 -0.2114426 4289176209
0.0525444 0.61127919 -0.2124214 4285412136
0.053646699 0.61151671 -0.2124424 4285148195
0.051506002 0.61138749 -0.2119261 4285741871
0.050164498 0.6111179 -0.2117745 4285873714
0.0489108 0.61084437 -0.2117195 4286270010
0.047466598 0.61057609 -0.2116757 4286403137
0.045912098 0.61054838 -0.2111472 4286668109
0.044856101 0.61034513 -0.2111091 4287129431
0.044042099 0.61023921 -0.2110194 4287459679
0.13301671 0.61170429 -0.2109025 4289571226
0.1338713 0.61214572 -0.21140499 4289637275
0.13209599 0.61132699 -0.2104696 4289110419
0.1310876 0.61098969 -0.2101166 4288846992
0.1300451 0.610677 -0.2098666 4288780943
0.048450399 0.61119211 -0.21097919 4286203191
0.0496074 0.6114918 -0.21098509 4285872687
0.0473525 0.61125392 -0.2104758 4286599749
0.046085902 0.61110908 -0.21020509 4286996305
0.044881701 0.61075598 -0.210345 4287260761
0.043567002 0.6106075 -0.2101088 4287591265
0.042334199 0.61046761 -0.2099091 4287855723
0.041157302 0.61032331 -0.2097587 4288119924
0.13171659 0.61157858 -0.20947009 4289308056
0.1327083 0.6119526 -0.2098837 4289571228
0.13056999 0.6112628 -0.2090306 4289110164
0.1295414 0.61086088 -0.20904469 4288846736
0.12850501 0.61070448 -0.20869359 4288781199
0.12728339 0.61045539 -0.2084583 4288781455
0.0443356 0.61122358 -0.20935491 4287524705
0.0455736 0.61144459 -0.2094848 4287193943
0.043077301 0.61105323 -0.2091461 4287986542
0.0417413 0.6109302 -0.2088563 4287987827
0.040542599 0.61062813 -0.2089722 4288119927
0.039170898 0.61055851 -0.20871019 4288185724
0.037561499 0.6104148 -0.2085408 4288252287
0.036694501 0.61035609 -0.2084364 4288252801
0.0358724 0.61034602 -0.2083427 4288318852
0.1305683 0.61164969 -0.20828611 4289241749
0.13132989 0.61188161 -0.2085281 4289373589
0.1295528 0.61142069 -0.2080206 4289176214
0.1278864 0.6111185 -0.2075657 4289242263
0.12672891 0.61071151 -0.2076582 4289045141
0.12573899 0.6105966 -0.2073638 4288979350
0.1246059 0.61040258 -0.20710979 4288913301
0.041801501 0.61140651 -0.2081109 4288251004
0.042668901 0.61152643 -0.20825499 4288250232
0.040706798 0.61128497 -0.20795161 4288252290
0.039349198 0.61118668 -0.207652 4288252806
0.0382181 0.61092538 -0.20774689 4288318854
0.036873002 0.61075002 -0.2077226 4288253574
0.035499301 0.61080569 -0.20738751 4288385418
0.033896402 0.61084509 -0.20708559 4288451469
0.032333501 0.61070341 -0.2071707 4288583311
0.030986501 0.61060041 -0.20728479 4288846739
0.029675201 0.6104117 -0.2076408 4289110168
0.028442699 0.61050808 -0.2072079 4289307546
0.027423101 0.61055052 -0.206865 4289373338
0.026340701 0.610403 -0.20690501 4289307546
0.1266682 0.61125791 -0.2067223 4289374620
0.1277632 0.61165589 -0.2066233 4289440156
0.1253636 0.61106151 -0.2064074 4289243036
0.1242247 0.61084771 -0.20615581 4288979353
0.1231348 0.61060059 -0.2058949 4288979095
0.1220731 0.61031359 -0.2056008 4289110169
0.037684701 0.61125982 -0.2070664 4288319373
0.0387538 0.61151308 -0.2069788 4288319115
0.036644898 0.61132419 -0.2067471 4288253837
0.0352339 0.61142498 -0.20630901 4288254350
0.0339224 0.61136359 -0.2061519 4288254350
0.032832202 0.61116672 -0.2063314 4288385935
0.031537399 0.61105031 -0.20640969 4288583314
0.029942101 0.6109165 -0.2065222 4288780693
0.0284389 0.61093158 -0.2062474 4288912534
0.027164601 0.61086088 -0.2061 4289044120
0.0258867 0.61072528 -0.20600609 4289109912
0.024573799 0.61057299 -0.2058578 4289044119
0.0233106 0.6104157 -0.20567431 4289043861
0.1238385 0.61129957 -0.20520779 4288913562
0.1249386 0.61153668 -0.2054632 4289110941
0.122754 0.61102438 -0.2049242 4288846999
0.1216886 0.61070758 -0.20461351 4289110171
0.1206475 0.61035937 -0.204285 4289307551
0.0322216 0.6114732 -0.20573971 4288188303
0.033290599 0.61166739 -0.2055718 4288122766
0.0311264 0.61149508 -0.2055918 4288385937
0.029687099 0.61146539 -0.2054486 4288583315
0.028256699 0.61138397 -0.2053296 4288714643
0.0268657 0.6113171 -0.2051176 4288780692
0.0253943 0.61111009 -0.2050526 4288780435
0.0239591 0.6109919 -0.2047338 4288780691
0.0225961 0.6107018 -0.20472109 4288846483
0.0216229 0.6104672 -0.2047704 4288714640
0.0207207 0.61042541 -0.2044269 4288517518
0.1212584 0.6110974 -0.2036764 4288122254
0.1223249 0.61143798 -0.20397811 4288385168
0.1202168 0.61075753 -0.2033665 4288780953
0.1191695 0.61042738 -0.2030499 4288847004
0.023984499 0.61149251 -0.20380069 4288583055
0.0249558 0.61151969 -0.2041375 4288648848
0.022970499 0.61123937 -0.20382211 4288517262
0.021643599 0.61093318 -0.20379891 4288451725
0.020349801 0.61080348 -0.2034218 4288385931
0.019161999 0.61063981 -0.20315459 4288385674
0.017991699 0.61044061 -0.20295081 4288319882
0.1197428 0.61124629 -0.2025632 4286673782
0.1207828 0.611516 -0.2028612 4286871674
0.11865 0.6109789 -0.2022593 4287595653
0.1175291 0.61068118 -0.20196719 4287464320
0.021094199 0.61137861 -0.2026611 4288319882
0.022300599 0.61158341 -0.2028731 4288385674
0.0198943 0.61120629 -0.2023968 4288122761
0.018598 0.61104321 -0.2020795 4288122760
0.017411301 0.61069387 -0.2021566 4288188296
0.016020199 0.61054182 -0.20178971 4287925381
0.0148541 0.61034828 -0.2016084 4287728513
0.0139533 0.61022192 -0.20147181 4287794817
0.1180146 0.61168581 -0.20158871 4285949545
0.1192124 0.61189139 -0.2019023 4285554531
0.116825 0.61133778 -0.2013139 4286147690
0.1157207 0.61096859 -0.2010808 4286016361
0.1146679 0.61065 -0.2008629 4286148204
0.0185901 0.61148107 -0.20129199 4287990918
0.019453701 0.61162281 -0.2014402 4288122250
0.0175022 0.61128658 -0.20113949 4287925125
0.0161118 0.61114162 -0.20073999 4287859588
0.0146828 0.61080849 -0.2006779 4287728514
0.0133691 0.6105032 -0.2006869 4287794562
0.0123379 0.61045319 -0.20040479 4287728770
0.0112212 0.6103574 -0.20025229 4287794562
-0.0003519 0.61023158 -0.2000892 4287662979
0.00039579999 0.61018801 -0.2000507 4287729028
-0.0010533 0.6102919 -0.2001119 4287596930
-0.0041461 0.6105153 -0.2004495 4287136638
0.1149303 0.61157137 -0.20060331 4285424223
0.1160017 0.61193299 -0.2008058 4285160536
0.1140399 0.61119431 -0.200455 4285819495
0.1130198 0.6111815 -0.200179 4285885286
0.1116681 0.61101979 -0.19982161 4285818725
0.1105507 0.61053318 -0.1996188 4285752418
0.0144834 0.61134541 -0.199609 4287793794
0.0155702 0.6114701 -0.1999034 4287728259
0.0131931 0.61103022 -0.1996474 4287794050
0.011858 0.61077762 -0.1996424 4287794306
0.0107416 0.61076528 -0.19937 4287860354
0.0093085999 0.61065888 -0.199279 4287860353
0.0078683002 0.61072141 -0.19898769 4287991683
0.0064980001 0.61084509 -0.1986818 4288057476
0.0052176001 0.61045229 -0.19932321 4288057732
0.0039883 0.6106801 -0.198962 4288057732
0.0024059 0.6106447 -0.1991376 4287926403
0.00094290002 0.61058629 -0.1993871 4287794563
-0.0004666 0.610753 -0.19933119 4287728771
-0.0018072 0.6107071 -0.19963109 4287531393
-0.0031234 0.61102158 -0.19941621 4287334015
-0.0046505001 0.6109972 -0.1998295 4287136894
-0.0053078998 0.6114096 -0.19926339 4287005054
0.110023 0.61093551 -0.1993055 4285949797
0.1106869 0.6112771 -0.1994164 4285620834
0.1092607 0.61101609 -0.19911 4286147690
0.1081763 0.61109912 -0.1988868 4286411376
0.1065295 0.61103499 -0.1985822 4287003769
0.1050184 0.61082572 -0.1982332 4287201149
0.1039806 0.61119431 -0.1979093 4287069305
0.013087 0.61148512 -0.1987863 4287859587
0.0139521 0.61163551 -0.19886731 4287859587
0.0119564 0.61138391 -0.1986251 4287794049
0.0102501 0.6112746 -0.1983894 4287728257
0.0088120997 0.6112982 -0.19810461 4287662721
0.0075054001 0.6112656 -0.1980226 4287794562
0.0064733 0.61137712 -0.19779509 4287925890
0.0051386999 0.61117762 -0.1981357 4287926146
0.0035270001 0.61118501 -0.1982134 4287926146
0.0023127 0.61130041 -0.1981557 4287926146
0.00082800002 0.61127168 -0.1983676 4287925890
-0.00075439998 0.61143541 -0.1983106 4287860098
-0.0020103999 0.61133331 -0.1986708 4287662977
-0.0030340001 0.61147791 -0.19862831 4287465599
-0.0038763001 0.61154509 -0.19869231 4287334013
0.1030796 0.61144912 -0.1976065 4286476142
0.1021756 0.61118561 -0.1973905 4286607471
0.1008557 0.6108861 -0.1971425 4286805107
0.099254899 0.61108577 -0.19683769 4286870645
0.098122001 0.6108644 -0.1966361 4287199097
0.097026601 0.61085278 -0.1964695 4287198583
0.074709304 0.61066848 -0.1964536 4286078303
0.075914703 0.61123818 -0.1965217 4285683288
0.073370203 0.61098993 -0.19664989 4286406753
0.072082497 0.61139572 -0.1967639 4286472289
0.0708111 0.61102349 -0.1965933 4286340961
0.0692553 0.61085951 -0.19639 4286407268
0.068009399 0.61102521 -0.1962323 4286737002
0.0089053996 0.61177069 -0.1973688 4287597186
0.0097273998 0.61180443 -0.19745579 4287531393
0.0081551 0.61174202 -0.1973405 4287662978
0.0051660002 0.6116482 -0.1974121 4287860097
0.0058784001 0.61165839 -0.1973736 4287860097
0.0042988998 0.61167669 -0.1974273 4287860353
0.0029903001 0.61170882 -0.19748279 4287991681
0.095842503 0.61031419 -0.1962173 4287264893
0.0946742 0.61088431 -0.1961326 4287066484
0.095834903 0.61137581 -0.1963187 4287395192
0.093642101 0.61102211 -0.19604 4287065199
0.092604399 0.6111719 -0.19598719 4286999150
0.091269001 0.61087823 -0.19578969 4286998894
0.090011798 0.6105929 -0.19563951 4286867053
0.088636696 0.61035508 -0.1955184 4286538345
0.087181002 0.6101976 -0.1954107 4286341735
0.085889898 0.60996938 -0.1952742 4286210407
0.0847973 0.61047828 -0.1954454 4286078819
0.079056703 0.61079299 -0.19601791 4285421402
0.080469601 0.61027032 -0.1956773 4285553759
0.0778521 0.61090231 -0.1961427 4285289044
0.0768952 0.61053669 -0.1961372 4285617495
0.077157497 0.61150777 -0.1964919 4285289043
0.067364298 0.61038208 -0.1959943 4286868844
0.0663146 0.610704 -0.1958549 4286934891
0.067054003 0.6114552 -0.1961464 4286934380
0.065325998 0.6110512 -0.19571079 4287132011
0.063971199 0.61097389 -0.19537561 4287329130
0.062580198 0.61101031 -0.19499999 4287657577
0.083831601 0.60995668 -0.1952424 4285552221
0.082926802 0.61020219 -0.1953631 4285618783
0.083566502 0.61079001 -0.19560879 4286079845
0.082271002 0.60990381 -0.1952934 4285421918
0.082032703 0.61078519 -0.1957307 4285948258
0.081445701 0.60975319 -0.1953343 4284961881
0.061845399 0.61035961 -0.1946525 4287920235
0.060942601 0.61084288 -0.19445769 4287788906
0.061630499 0.6114499 -0.1947974 4287788906
0.0597235 0.61089188 -0.19406921 4287788648
0.0584272 0.6109547 -0.19367769 4287788903
0.057479002 0.61140901 -0.19348469 4287854438
0.056665499 0.61067581 -0.1931009 4287854182
0.0555888 0.61131179 -0.19284 4287788388
0.054334499 0.6108675 -0.1923085 4287787874
0.0532501 0.61093801 -0.1918761 4287656288
0.0526063 0.61134458 -0.1915554 4287590495
0.051699799 0.61115128 -0.190966 4287590237
0.050824299 0.61114728 -0.1903307 4287457881
0.050300799 0.61062092 -0.1898254 4287391576
0.049791601 0.6111452 -0.18922479 4287194454
0.050317999 0.61162877 -0.1898407 4287457623
0.049388099 0.61062801 -0.1885502 4287127893
0.049200598 0.61113089 -0.18802141 4286996307
0.049448699 0.61159158 -0.1886 4287259732
-0.0290705 0.61095852 -0.1881526 4288055946
-0.030469 0.61059618 -0.1883321 4287990153
-0.0318731 0.61048508 -0.18843129 4287858310
-0.033291299 0.61056358 -0.18849839 4287725698
-0.034708001 0.61076379 -0.1885432 4287789952
-0.0360622 0.6110453 -0.18851329 4287656315
-0.037261602 0.6113925 -0.18833169 4287457140
0.049063899 0.61104608 -0.1872178 4286732625
-0.027677299 0.61157399 -0.1878657 4288254864
-0.0294651 0.61152571 -0.18751781 4288122767
-0.0308115 0.61114949 -0.1877189 4288056204
-0.0320349 0.61112279 -0.1876922 4287989384
-0.033345401 0.61121279 -0.1877102 4287922309
-0.034542698 0.611301 -0.187791 4287789953
-0.0354486 0.61140108 -0.1878622 4287723391
0.0490316 0.61098748 -0.18608899 4286469455
0.049142301 0.61070281 -0.184911 4286272591
0.049497899 0.6109305 -0.1841515 4286338127
0.049712099 0.6105234 -0.1834162 4286273362
-0.062245499 0.61117381 -0.18275391 4287108656
-0.063118003 0.61065871 -0.1828461 4287239729
-0.064063899 0.61021209 -0.1828846 4287305521
-0.065379404 0.61024779 -0.1823204 4287436594
0.050833199 0.61049879 -0.182083 4286340439
0.051777899 0.61089242 -0.1816764 4286473566
0.050028998 0.6100319 -0.18258139 4286273105
0.0504089 0.61099768 -0.1829285 4286339926
-0.0622865 0.61147308 -0.1823688 4287305264
-0.0616224 0.61191982 -0.18228871 4287305264
-0.061450802 0.61175829 -0.1826192 4287239728
-0.063298203 0.6113196 -0.1819713 4287370801
-0.064602301 0.6109848 -0.181778 4287567666
-0.065846197 0.61081982 -0.18150321 4287567410
-0.067085199 0.61066639 -0.1812633 4287567154
-0.068283498 0.61050421 -0.181071 4287632434
0.058680002 0.61088681 -0.18025459 4287331953
0.059786301 0.6108225 -0.1801459 4287529588
0.057193 0.6108532 -0.1802467 4287068270
0.055661999 0.61103451 -0.1804896 4286804586
0.054507501 0.611009 -0.1806334 4286738023
0.053543098 0.61067218 -0.1806283 4286540131
0.053887099 0.6114642 -0.1811894 4286869863
0.052823 0.61121351 -0.18137451 4286737252
0.052382398 0.6103338 -0.1808493 4286474080
-0.066355899 0.61133909 -0.18064819 4287698483
-0.065138303 0.61154097 -0.1808576 4287632947
-0.067592502 0.61113828 -0.1804537 4287763763
-0.068779103 0.61092579 -0.1802941 4287763763
-0.069908597 0.6107384 -0.180097 4287829300
-0.071068302 0.6105563 -0.1798628 4287960118
0.063482203 0.61060458 -0.1787007 4287924604
0.064756602 0.6111027 -0.17852969 4287858300
0.064208701 0.61146098 -0.17945141 4287858298
0.063150004 0.61110681 -0.1795883 4287858554
0.062274698 0.61051577 -0.1792243 4287924602
0.062235899 0.61117232 -0.18004081 4287793015
0.061383098 0.61060739 -0.179654 4287727481
0.0609494 0.61117363 -0.1803616 4287726966
0.0603479 0.6103856 -0.1796232 4287595895
-0.069206402 0.61129493 -0.17955039 4287894836
-0.068146601 0.61154097 -0.1796238 4287829299
-0.070233501 0.611283 -0.1791165 4288025910
-0.0715684 0.61099708 -0.17899109 4288222262
-0.072959498 0.61071748 -0.1788906 4288287797
-0.074510098 0.61071628 -0.17844079 4288353333
-0.0755665 0.6105451 -0.1784092 4288353076
-0.076462299 0.61039829 -0.17840379 4288353076
0.065162897 0.61079741 -0.1775641 4287924864
0.066188797 0.61127329 -0.17715099 4287725946
0.0658549 0.61153817 -0.1782098 4287725687
-0.073334798 0.61134821 -0.17787489 4288484662
-0.072090901 0.61144572 -0.1781369 4288484662
-0.074396104 0.61134708 -0.1775763 4288550199
-0.075647503 0.61105752 -0.17766491 4288549943
-0.076963603 0.61074817 -0.1777838 4288549943
-0.078270197 0.61064428 -0.1775932 4288549943
-0.0798942 0.61067528 -0.1770823 4288615223
-0.080995597 0.6104992 -0.17703339 4288615223
-0.081869699 0.61034858 -0.1769954 4288615479
0.065434203 0.61053759 -0.1764891 4287925636
0.066412203 0.61110121 -0.1760006 4287792255
-0.075730301 0.61155319 -0.17692091 4288746808
-0.074877597 0.61170089 -0.1769302 4288746808
-0.076822698 0.61135942 -0.1769066 4288746552
-0.0784503 0.61137289 -0.17641249 4288746296
-0.079755202 0.6112799 -0.17616481 4288811576
-0.0810965 0.61099678 -0.17621499 4288811831
-0.082447 0.61069608 -0.17629661 4288812087
-0.083834499 0.61058009 -0.17610709 4288877623
-0.085493498 0.61064339 -0.1756447 4288877624
-0.086555198 0.61048073 -0.1756611 4288943160
-0.0874108 0.61037523 -0.17561211 4289008695
0.066550501 0.6110608 -0.17466789 4288054913
0.067280799 0.61167198 -0.1747992 4287725182
0.067270599 0.6117003 -0.1755491 4287594108
-0.081159197 0.61148769 -0.1753826 4289008440
-0.080252796 0.61160761 -0.1754507 4288942648
-0.082358196 0.61136383 -0.17525721 4289074232
-0.084137298 0.61124778 -0.17502239 4289205561
-0.085400999 0.61129153 -0.1746721 4289139768
-0.086686201 0.61090928 -0.17495701 4289073977
-0.087980703 0.61070162 -0.17494351 4289008440
-0.089371704 0.61063939 -0.1746261 4288942648
-0.090785898 0.61039549 -0.1745922 4288942647
-0.091603003 0.61047959 -0.1741724 4289007927
-0.092685796 0.61028433 -0.1741192 4289073464
-0.2442686 0.61053568 -0.17412589 4285756791
-0.2431587 0.61035419 -0.1741529 4285954168
-0.2453028 0.6105023 -0.1743965 4285493620
0.066562802 0.61120188 -0.17341121 4288055169
0.067247503 0.61175072 -0.17406011 4287790463
-0.085364699 0.6116668 -0.1740635 4289270585
-0.084549099 0.61172688 -0.1741485 4289336377
-0.086212203 0.61153191 -0.17405739 4289073721
-0.087809101 0.61133349 -0.1739185 4289008184
-0.089277297 0.61126411 -0.1735741 4289073720
-0.090583302 0.61095089 -0.1736937 4289073464
-0.091888197 0.61087281 -0.1733721 4289139000
-0.093193904 0.61071831 -0.17317849 4289073464
-0.094873101 0.61049378 -0.17303459 4289007929
-0.096534297 0.6103611 -0.17285161 4289007928
-0.0974297 0.61031461 -0.1727514 4288876855
-0.098232001 0.61026478 -0.17268389 4288811062
-0.2414877 0.6106227 -0.17314079 4286414460
-0.2402447 0.61044121 -0.1729916 4286611581
-0.2427687 0.61076349 -0.1733174 4286151546
-0.2438769 0.61081219 -0.173546 4285953913
-0.2453995 0.61101949 -0.1735124 4285756535
0.066402301 0.61139297 -0.1722724 4288318851
0.065635599 0.6108005 -0.1716736 4288450436
-0.091019101 0.61135298 -0.17280009 4289204538
-0.089872397 0.61157888 -0.1727801 4289073465
-0.092101201 0.61139458 -0.1723209 4289270073
-0.093594499 0.61116332 -0.1722368 4289204281
-0.094646201 0.61109579 -0.1720342 4289073208
-0.095757 0.61092031 -0.1720567 4289007672
-0.097364798 0.6107837 -0.1719427 4289007672
-0.098715797 0.61057347 -0.1720577 4289007671
-0.1000102 0.61049771 -0.171882 4289073208
-0.1011924 0.61060262 -0.1713829 4289073208
-0.102361 0.61041528 -0.1714031 4289007674
-0.23717169 0.61052042 -0.1716475 4287006336
-0.2362646 0.6103977 -0.1715344 4287006593
-0.23830371 0.61068052 -0.1718061 4286874496
-0.23966479 0.61078322 -0.17217021 4286743167
-0.24087369 0.61110139 -0.1720802 4286546047
-0.242295 0.61121571 -0.1723617 4286414462
-0.2439259 0.61136073 -0.1725487 4286217084
-0.24552611 0.6115163 -0.17261811 4286085243
0.065322302 0.6109919 -0.1706019 4288253571
0.066155002 0.6117323 -0.1710403 4288319366
-0.095030099 0.61137283 -0.1714097 4289138744
-0.094004199 0.6115396 -0.17139719 4289204280
-0.096116103 0.61143398 -0.1709981 4289073208
-0.097434603 0.61133617 -0.17087001 4289138744
-0.098724097 0.611049 -0.1711373 4289138489
-0.1002011 0.61102641 -0.17079841 4289138488
-0.1016738 0.61096919 -0.17045601 4289138744
-0.1029726 0.6106509 -0.1707046 4289073209
-0.1042531 0.61050439 -0.1704967 4289072954
-0.1053687 0.61052543 -0.1699823 4288941881
-0.1064188 0.61029983 -0.1700446 4288941881
-0.23191079 0.61051393 -0.16996209 4287334531
-0.230831 0.61035669 -0.169965 4287400325
-0.23273049 0.6103881 -0.1704262 4287203202
-0.23421291 0.61060059 -0.1704829 4287203202
-0.23566049 0.61070609 -0.1707745 4287137666
-0.23704959 0.61099082 -0.17076211 4287072129
-0.2384115 0.6112867 -0.1707713 4287006337
-0.23977479 0.61139369 -0.1711389 4286874753
-0.24085879 0.61155319 -0.1712869 4286743425
-0.2417459 0.61163628 -0.17144559 4286677375
0.064978004 0.6112569 -0.1696202 4288056706
0.0656427 0.61172551 -0.170082 4288385161
0.064189903 0.61073589 -0.16910779 4287333239
-0.099233903 0.61143351 -0.1701926 4289204280
-0.098089501 0.61159879 -0.17014679 4289204280
-0.1003559 0.61150819 -0.1696534 4289204281
-0.1016417 0.61139822 -0.1694492 4289204282
-0.1029638 0.61109489 -0.16964529 4289204026
-0.1045609 0.61100709 -0.1691636 4289204282
-0.1059424 0.6107713 -0.16916031 4289138746
-0.1069519 0.61054742 -0.169273 4289073210
-0.1079942 0.6104973 -0.1689682 4289139003
-0.1092957 0.61035818 -0.16880509 4289139003
-0.2264787 0.61055809 -0.1685255 4287662983
-0.22531819 0.61036903 -0.1686369 4287663239
-0.2275921 0.61049801 -0.1688886 4287597191
-0.2290166 0.61049449 -0.1692359 4287531654
-0.2302552 0.61061633 -0.1693217 4287466117
-0.2314854 0.61090499 -0.1690765 4287400324
-0.23301031 0.61093551 -0.1694687 4287334788
-0.2343609 0.6112057 -0.1693829 4287334787
-0.2358056 0.61130381 -0.1697121 4287269251
-0.2369636 0.61144561 -0.1698883 4287269251
-0.237867 0.6115908 -0.1699882 4287138179
0.063790701 0.61114877 -0.1681304 4287332983
0.0646189 0.61166269 -0.1686627 4288056705
-0.1034296 0.61147988 -0.1684489 4289335355
-0.1021928 0.61161208 -0.16866019 4289269819
-0.1044615 0.61142677 -0.16812269 4289335355
-0.1054874 0.61121261 -0.16823851 4289335611
-0.1068807 0.61098689 -0.16824441 4289270075
-0.1085154 0.61092079 -0.1678018 4289204539
-0.1098621 0.6106292 -0.1680233 4289204539
-0.1111067 0.61054271 -0.16782551 4289204540
-0.1121138 0.61063069 -0.1673439 4289138748
-0.1132248 0.61048448 -0.167345 4289138748
-0.22101641 0.61060768 -0.1671892 4287860363
-0.219823 0.61044312 -0.1672693 4287860876
-0.222059 0.6105482 -0.1675484 4287794570
-0.2234064 0.61051399 -0.1679239 4287729033
-0.2246969 0.61062449 -0.1679976 4287729032
-0.2260121 0.61093283 -0.1676607 4287663239
-0.2274895 0.61099279 -0.1678827 4287597446
-0.2288069 0.61099792 -0.16818529 4287597446
-0.2302534 0.6110729 -0.1683923 4287531910
-0.23147871 0.61137009 -0.16809841 4287531909
-0.2325604 0.61140609 -0.1683528 4287466116
-0.2337981 0.61150932 -0.1685604 4287400580
0.063329399 0.61162829 -0.167184 4286675313
0.0624668 0.61111379 -0.1666936 4285885801
0.061576098 0.61062717 -0.1662195 4284898140
-0.1060469 0.61144543 -0.1674208 4289400891
-0.1049769 0.61163568 -0.16736379 4289400891
-0.1071819 0.6114881 -0.16690721 4289400892
-0.1085117 0.6113776 -0.1667265 4289400893
-0.1097999 0.61107481 -0.1670323 4289400892
-0.1111517 0.61101449 -0.1667771 4289335612
-0.1123479 0.61097211 -0.1665446 4289335614
-0.1136945 0.61083311 -0.166484 4289270077
-0.1152602 0.61060059 -0.1665469 4289204540
-0.1166265 0.6105724 -0.1662197 4289139004
-0.1176348 0.61058331 -0.165892 4289007932
-0.1187956 0.61035401 -0.16602281 4289007932
-0.1907784 0.61040539 -0.1657947 4288518802
-0.18971319 0.6102826 -0.1659895 4288518802
-0.19185521 0.61036229 -0.1659576 4288453010
-0.19321071 0.6103878 -0.1659811 4288453011
-0.19459771 0.61038369 -0.1660493 4288453011
-0.19582319 0.61031401 -0.16623791 4288387218
-0.19719391 0.61046731 -0.16595291 4288387218
-0.1985805 0.6103918 -0.1661476 4288386962
-0.1996716 0.61031991 -0.1663136 4288386961
-0.2010971 0.6104694 -0.1660239 4288387216
-0.2027131 0.6103614 -0.166253 4288321424
-0.2041973 0.61020988 -0.16656271 4288255375
-0.2055649 0.61044741 -0.1661081 4288255374
-0.20699111 0.6106388 -0.1657418 4288255375
-0.2081465 0.61038768 -0.16628911 4288189582
-0.2096784 0.61040121 -0.1663103 4288255119
-0.211189 0.6106478 -0.1658608 4288189327
-0.21232601 0.61054999 -0.1661153 4288123790
-0.2136935 0.61056691 -0.16615739 4288123790
-0.21515401 0.6105991 -0.1662131 4288123789
-0.2165256 0.61059058 -0.1663918 4288057997
-0.2176827 0.61049372 -0.1667635 4287992461
-0.2190191 0.61074519 -0.16646931 4287926669
-0.2206081 0.61099398 -0.1662759 4287926412
-0.2220507 0.61100358 -0.16658659 4287860619
-0.2233108 0.61100441 -0.1668755 4287860619
-0.2247417 0.6110763 -0.1670557 4287795082
-0.2260529 0.61138719 -0.1666947 4287794825
-0.22739071 0.6114949 -0.16678581 4287729032
-0.22872689 0.6114465 -0.16721991 4287663495
-0.22974969 0.61140668 -0.1675588 4287663494
-0.2308525 0.6116091 -0.1674052 4287663494
0.0610702 0.61114907 -0.16535661 4285425254
0.061960399 0.6116302 -0.165821 4286214765
0.0601427 0.61068749 -0.1649085 4284965218
-0.1102198 0.61140978 -0.1661506 4289532221
-0.1091122 0.61160028 -0.16603 4289532221
-0.1112188 0.61143821 -0.1658154 4289532222
-0.1126047 0.61141771 -0.1654952 4289466944
-0.1141608 0.61119431 -0.1655799 4289401407
-0.1154935 0.61105782 -0.1655062 4289335870
-0.1166849 0.61100179 -0.1652585 4289270334
-0.118041 0.61091357 -0.1649957 4289139260
-0.1193571 0.61059928 -0.1652889 4289073724
-0.1206339 0.61051089 -0.1650493 4288942395
-0.1217394 0.6105656 -0.16452549 4288942650
-0.1228016 0.61036718 -0.1646194 4288877113
-0.1674207 0.6103909 -0.16440409 4288781977
-0.1663997 0.61032248 -0.1645584 4288716440
-0.1685324 0.61028248 -0.1646947 4288781978
-0.16975629 0.61019748 -0.1649365 4288716185
-0.1711044 0.61036712 -0.1645553 4288650392
-0.17260049 0.61035502 -0.1646574 4288715928
-0.173953 0.61035979 -0.16472539 4288715928
-0.17532361 0.61039501 -0.16474099 4288715928
-0.1766907 0.61044049 -0.1647425 4288650134
-0.17805301 0.6104759 -0.1647637 4288584597
-0.1794333 0.61050212 -0.1647978 4288650390
-0.1808645 0.61053711 -0.16480801 4288650389
-0.1823079 0.61056089 -0.16485059 4288584597
-0.1837174 0.6105696 -0.164929 4288584597
-0.1851391 0.61059117 -0.1649716 4288584597
-0.1865743 0.61063069 -0.1649781 4288584597
-0.1879559 0.61058968 -0.1651729 4288584853
-0.1891714 0.61058408 -0.16527881 4288584596
-0.1902564 0.61071032 -0.16506711 4288584596
-0.1914797 0.61076951 -0.16501869 4288584596
-0.19275241 0.61079121 -0.1650527 4288584596
-0.1941407 0.61081839 -0.16506889 4288584596
-0.1959068 0.61086148 -0.165053 4288518803
-0.19747721 0.61091161 -0.1650143 4288518546
-0.19833849 0.6107406 -0.1654135 4288518290
-0.1997367 0.61078501 -0.16534939 4288518545
-0.20140719 0.61101109 -0.1649 4288453009
-0.2024345 0.61077029 -0.16542131 4288452496
-0.2039753 0.61074579 -0.1654751 4288386703
-0.20559859 0.61091697 -0.1651261 4288321167
-0.2070407 0.61109251 -0.1647636 4288321167
-0.2086248 0.61086398 -0.1653017 4288320911
-0.2103429 0.61091471 -0.1652541 4288255375
-0.2114819 0.61098373 -0.1651535 4288255375
-0.21216419 0.61086261 -0.1654437 4288255119
-0.2132847 0.61094999 -0.1652995 4288255119
-0.21497659 0.61109412 -0.1650975 4288255119
-0.21649849 0.6110397 -0.16539679 4288123791
-0.21795499 0.61101609 -0.1656778 4288057998
-0.2195195 0.61124641 -0.1654786 4288057999
-0.2208605 0.61151731 -0.1651777 4287992206
-0.2220377 0.61144501 -0.1656158 4287991950
-0.2232767 0.6114254 -0.1659472 4287926669
-0.2242725 0.61139339 -0.1662517 4287860876
-0.2253895 0.61159742 -0.1660634 4287860875
0.059609398 0.61122918 -0.1640889 4285622892
0.060533699 0.6116966 -0.1645391 4286280563
0.058658902 0.61078018 -0.1636672 4285952113
0.057682499 0.61036283 -0.1632818 4285886835
-0.115723 0.61137861 -0.1646831 4289401150
-0.1146372 0.61151552 -0.16469631 4289401151
-0.1167162 0.61143428 -0.1641766 4289401149
-0.1179341 0.61133373 -0.16397689 4289335612
-0.119284 0.61104679 -0.1641959 4289204540
-0.120916 0.61099011 -0.16371299 4289073468
-0.1223855 0.6107918 -0.1636813 4289073467
-0.1234524 0.61058229 -0.1638151 4288942650
-0.1245289 0.61053038 -0.1635216 4288877627
-0.1257796 0.61042261 -0.1633431 4288812603
-0.1566349 0.61039889 -0.16310181 4288913562
-0.1556579 0.61028153 -0.1632333 4288913562
-0.1576308 0.61039472 -0.1633295 4288848025
-0.1589316 0.61044359 -0.1634361 4288848025
-0.16029119 0.61050749 -0.1634735 4288848025
-0.16165809 0.61056328 -0.16349681 4288847770
-0.1630348 0.61059141 -0.16356599 4288847770
-0.1644907 0.61054927 -0.1638165 4288847770
-0.1657377 0.61056399 -0.1638765 4288782233
-0.1667788 0.6106652 -0.1636312 4288847770
-0.1681077 0.61068779 -0.16359881 4288847771
-0.1697323 0.61063677 -0.16378941 4288847514
-0.17113949 0.6107716 -0.1635012 4288781721
-0.1723115 0.61072928 -0.1636842 4288847257
-0.1736747 0.61073858 -0.16374899 4288847257
-0.1750509 0.6107735 -0.1637644 4288847513
-0.1764245 0.61082029 -0.1637612 4288847512
-0.1777847 0.61086291 -0.1637678 4288781976
-0.1791328 0.61089301 -0.1637945 4288847769
-0.1805122 0.6109271 -0.16380151 4288781976
-0.1821253 0.61102068 -0.16367009 4288781976
-0.18368439 0.6109882 -0.16388591 4288782232
-0.18511429 0.61099648 -0.163987 4288781976
-0.1865169 0.61103028 -0.1640128 4288781975
-0.18792769 0.61104828 -0.164075 4288781974
-0.1894483 0.61102331 -0.16425531 4288781974
-0.1910152 0.61113667 -0.1641095 4288781974
-0.19235189 0.61117989 -0.1641126 4288781717
-0.1936186 0.61119789 -0.1641627 4288781717
-0.1948811 0.61124259 -0.164139 4288781460
-0.1959796 0.61136091 -0.16393469 4288715924
-0.19726931 0.61133629 -0.1640622 4288650131
-0.19865771 0.61113101 -0.1645771 4288650131
-0.2003047 0.6113838 -0.1640626 4288650131
-0.20188341 0.61140698 -0.1640382 4288584338
-0.2028814 0.6111514 -0.1646062 4288518289
-0.2043364 0.61123651 -0.16441409 4288452497
-0.2057444 0.61134261 -0.164178 4288386705
-0.2070407 0.61150622 -0.1638159 4288321169
-0.2083604 0.61136532 -0.1641766 4288386705
-0.2098372 0.61131001 -0.164352 4288386960
-0.211244 0.6112898 -0.1644529 4288386704
-0.2124287 0.611193 -0.1647194 4288321168
-0.2138764 0.61145478 -0.1641774 4288321169
-0.2154263 0.61156952 -0.16403051 4288255632
-0.2165581 0.61147618 -0.1643956 4288255376
-0.2175872 0.61138839 -0.16476279 4288124047
-0.2187411 0.61151809 -0.1646857 4288058255
0.057147902 0.61090487 -0.1624659 4286675578
0.058116499 0.61132318 -0.1628608 4286609785
0.056127399 0.61052758 -0.1621186 4286807421
-0.1197575 0.61141461 -0.16299009 4289401150
-0.1184804 0.61154509 -0.1631536 4289466686
-0.1207895 0.61138242 -0.1626572 4289335871
-0.1218839 0.61121398 -0.16269509 4289204798
-0.1234845 0.61102891 -0.16257571 4289073980
-0.12511259 0.61086071 -0.16242731 4288943676
-0.1265139 0.61070693 -0.16237409 4288812860
-0.1278255 0.61048228 -0.1626222 4288682558
-0.12911449 0.61060637 -0.16206969 4288618816
-0.13049901 0.61071199 -0.1615991 4288686917
-0.1317817 0.6105358 -0.1620293 4288887630
-0.13318101 0.61036569 -0.1625021 4289155165
-0.1347294 0.6105395 -0.1620287 4289291629
-0.1360053 0.61045861 -0.16229691 4289361787
-0.1371 0.61048508 -0.16219559 4289234823
-0.1385337 0.61050087 -0.1621017 4289237648
-0.1400466 0.61049449 -0.1620578 4289239189
-0.1414914 0.61045629 -0.1620715 4289240472
-0.14286581 0.61040759 -0.16207939 4289175706
-0.14422899 0.61035538 -0.16208801 4289176219
-0.1456169 0.6103279 -0.1620471 4289110683
-0.147012 0.61035448 -0.16188741 4289176476
-0.14827891 0.61043978 -0.161587 4289176476
-0.1493834 0.61034679 -0.16190059 4289176476
-0.1506985 0.61035299 -0.161964 4289176477
-0.1521221 0.61039072 -0.16203611 4289110941
-0.15366331 0.61039758 -0.1623407 4289110940
-0.15497079 0.6104582 -0.16248129 4289045147
-0.15598179 0.61059439 -0.1622836 4288979611
-0.157196 0.61068499 -0.162286 4288979354
-0.158507 0.61076069 -0.1623396 4288979354
-0.1599268 0.6108368 -0.1623881 4288979355
-0.1613432 0.6108979 -0.1624452 4288979355
-0.1627202 0.610946 -0.1624822 4289045148
-0.1641293 0.61096048 -0.1625732 4288979356
-0.1657045 0.61093408 -0.1627669 4288979356
-0.16727009 0.61102641 -0.1625638 4288979612
-0.168901 0.61110508 -0.162398 4289045148
-0.1705828 0.61107528 -0.1626025 4288979612
-0.1720016 0.61108279 -0.1626925 4288979355
-0.1733515 0.61109591 -0.1627609 4288979355
-0.17472009 0.61113101 -0.1627783 4288979611
-0.1760886 0.61117762 -0.1627747 4289045147
-0.1774468 0.61122292 -0.1627758 4289045147
-0.1787824 0.6112535 -0.1628056 4288979611
-0.1800604 0.61126691 -0.1628647 4288979355
-0.1813001 0.61130792 -0.16283961 4288913818
-0.1823861 0.61141652 -0.1626247 4288979610
-0.1836248 0.61143148 -0.16269819 4288979609
-0.1850623 0.6113888 -0.16296171 4288979353
-0.18644109 0.61141229 -0.16303191 4288979097
-0.1878117 0.61145121 -0.1630494 4288979096
-0.1892058 0.61148071 -0.16309009 4288913303
-0.19063739 0.61152291 -0.16311 4288847767
-0.19204959 0.61156881 -0.16312639 4288781974
-0.1933699 0.61157471 -0.163233 4288781717
-0.1943717 0.61152643 -0.1634358 4288781461
-0.1953871 0.61162758 -0.16327129 4288781461
0.055604901 0.61106861 -0.1612808 4287201663
0.056611501 0.6114431 -0.16164079 4287332991
0.054555301 0.61074328 -0.1609631 4287069569
0.053482 0.6104576 -0.1606774 4287134850
-0.1224698 0.61148298 -0.16164871 4289270591
-0.121292 0.61158621 -0.16182581 4289401664
-0.123486 0.61144447 -0.1613638 4289205310
-0.1245053 0.61128098 -0.16146339 4289009214
-0.125837 0.61115628 -0.16135161 4288813118
-0.1276283 0.61102438 -0.16119561 4288748863
-0.12940709 0.61097348 -0.160969 4288750915
-0.1305411 0.61100078 -0.160714 4288819272
-0.1316233 0.61090279 -0.16092721 4289019730
-0.13320211 0.61080348 -0.1611958 4289221215
-0.1346688 0.6108883 -0.16093931 4289357423
-0.1358929 0.61074018 -0.16142809 4289427582
-0.1371953 0.61084968 -0.1610669 4289365641
-0.13875329 0.61091399 -0.1608341 4289303185
-0.1403694 0.61084658 -0.1609683 4289304983
-0.14184231 0.610807 -0.1609538 4289306010
-0.1433022 0.61075252 -0.16095529 4289307035
-0.1447169 0.61069298 -0.1609821 4289242012
-0.14610121 0.61066169 -0.1609502 4289242269
-0.1474425 0.61066049 -0.1608704 4289242269
-0.14850581 0.61067247 -0.160799 4289242269
-0.1491942 0.61056828 -0.16116001 4289242269
-0.1502347 0.61061817 -0.1610291 4289176989
-0.1515878 0.61068708 -0.16092549 4289176990
-0.1530613 0.61074281 -0.1609893 4289176989
-0.1547523 0.61078781 -0.1612428 4289176989
-0.1563362 0.61093569 -0.1611463 4289111197
-0.15775581 0.6110301 -0.1612056 4289111197
-0.1593218 0.61117142 -0.1610994 4289111197
-0.16095591 0.61120868 -0.1613315 4289111196
-0.1623942 0.61125469 -0.16142949 4289111197
-0.16376419 0.61129522 -0.16146541 4289176733
-0.1651392 0.61131191 -0.16152491 4289176733
-0.1664837 0.6113255 -0.1615674 4289176733
-0.16775911 0.61136961 -0.16149829 4289176734
-0.1688242 0.61146063 -0.1612747 4289176990
-0.1701252 0.61146247 -0.1613736 4289176989
-0.1716342 0.61141759 -0.16165949 4289176733
-0.1730227 0.61143041 -0.161755 4289111196
-0.1743845 0.61146629 -0.16178 4289111197
-0.17574041 0.61151332 -0.1617775 4289176732
-0.1770924 0.61156178 -0.16177469 4289176732
-0.1784409 0.6115976 -0.16180231 4289111196
-0.1797554 0.61160028 -0.1619069 4289110939
-0.1807858 0.61155319 -0.1621199 4288979611
-0.1817895 0.61163759 -0.16195551 4288979610
0.054065499 0.6112479 -0.1600993 4287332481
0.055096801 0.61158371 -0.160423 4287464321
0.053002499 0.61094081 -0.1598054 4287331969
0.051919401 0.6106472 -0.15952089 4287463297
0.050833602 0.61035568 -0.1592295 4287463552
-0.1250639 0.6114974 -0.1606036 4289008959
-0.1240432 0.61163229 -0.1605662 4289139775
-0.12621281 0.61151701 -0.160124 4288812863
-0.1274876 0.61144602 -0.159941 4288748864
-0.1286191 0.61130267 -0.1600977 4288816708
-0.1298589 0.61124778 -0.16001821 4288885322
-0.13104559 0.61121941 -0.1599454 4289151831
-0.13236 0.61117882 -0.1599869 4289353060
-0.13381919 0.61116511 -0.160006 4289423730
-0.1355447 0.61113018 -0.16013139 4289428608
-0.1372897 0.61122978 -0.15979511 4289431691
-0.1384536 0.61119157 -0.1599407 4289434515
-0.13939489 0.61117071 -0.1599628 4289371289
-0.1407893 0.61116493 -0.1598592 4289372315
-0.14241061 0.61117321 -0.15963399 4289373085
-0.1439781 0.611063 -0.15981621 4289373598
-0.14535099 0.61100352 -0.15984739 4289374110
-0.1467426 0.61096603 -0.15984119 4289308575
-0.1481864 0.61093158 -0.15988439 4289308575
-0.1494308 0.61082393 -0.160264 4289308575
-0.150796 0.61094791 -0.15988401 4289308575
-0.1522865 0.61102188 -0.1597898 4289308575
-0.1537431 0.61109382 -0.1598101 4289243039
-0.1553307 0.61122751 -0.1597133 4289243295
-0.1569071 0.61127228 -0.16003831 4289243039
-0.1582064 0.61134928 -0.16014829 4289243039
-0.1592682 0.61147308 -0.15997779 4289243039
-0.16056959 0.61152488 -0.160091 4289243038
-0.162073 0.61153448 -0.1603661 4289243038
-0.1634485 0.61157572 -0.16043469 4289308574
-0.1647817 0.61161011 -0.16045821 4289308574
-0.1660804 0.61161542 -0.1605431 4289308318
-0.1671164 0.61158007 -0.1607434 4289242526
-0.1681155 0.6116482 -0.16057581 4289176990
0.051467601 0.61110079 -0.1585989 4287529088
0.052535001 0.61140567 -0.1589013 4287529088
0.050399199 0.61079538 -0.158292 4287529345
0.0493396 0.61048311 -0.1579785 4287660675
-0.1291386 0.61149728 -0.1593139 4288750660
-0.1281005 0.61161339 -0.1591835 4288749121
-0.1301447 0.61150652 -0.15907051 4288884811
-0.13142189 0.61148769 -0.158961 4289151575
-0.1327697 0.6114679 -0.158943 4289419367
-0.1342015 0.61145711 -0.1589532 4289556087
-0.1356885 0.61147982 -0.1588649 4289495428
-0.13708401 0.61154848 -0.158592 4289498767
-0.13837001 0.61138171 -0.15924069 4289435286
-0.1396457 0.61143088 -0.15897401 4289502875
-0.1411202 0.61148602 -0.1586149 4289504158
-0.142406 0.6114825 -0.1584788 4289504671
-0.143463 0.6113835 -0.1587069 4289439647
-0.1446871 0.6113199 -0.15876161 4289505440
-0.1459939 0.61128241 -0.1587255 4289440160
-0.1475035 0.61125231 -0.1587093 4289440161
-0.1495273 0.61123961 -0.1587064 4289440161
-0.1515168 0.61127609 -0.15868589 4289440161
-0.15293179 0.611323 -0.1587038 4289440161
-0.154164 0.61139739 -0.1586791 4289374624
-0.1551722 0.61151129 -0.1584924 4289440160
-0.1564022 0.61155099 -0.158733 4289374624
-0.15754279 0.6115163 -0.15927669 4289374368
-0.1585688 0.61160922 -0.1592318 4289308832
0.049979601 0.61122209 -0.157346 4287594623
0.051036298 0.61154062 -0.15766279 4287594879
0.048929401 0.61089748 -0.1570241 4287660417
0.047883902 0.61057073 -0.1567004 4287792001
-0.1440956 0.61154848 -0.15791561 4289570978
-0.1430701 0.61162961 -0.157727 4289505185
-0.1451426 0.61155379 -0.1577075 4289571490
-0.1465181 0.6115346 -0.1576149 4289571490
-0.148066 0.61152887 -0.1575295 4289506210
-0.1495824 0.61160809 -0.15715881 4289506210
-0.1510413 0.6115371 -0.15755039 4289505954
-0.152485 0.61154449 -0.15769181 4289440674
-0.1535303 0.6115436 -0.15789559 4289440417
-0.15450279 0.61163521 -0.1577507 4289505697
0.048526801 0.61130363 -0.15605991 4287660159
0.049568798 0.61163521 -0.15638991 4287594624
0.047486302 0.61097169 -0.15573061 4287791743
0.046439901 0.61064601 -0.15541451 4287923328
0.045379698 0.61033648 -0.1551201 4288120193
0.0460466 0.6110391 -0.15444221 4287791486
0.047094502 0.61136681 -0.1547538 4287725951
0.044978801 0.61072981 -0.15415201 4287922815
0.043871999 0.61045218 -0.15387359 4287857277
0.0445721 0.6111244 -0.153181 4287725949
0.0456535 0.6114291 -0.1534694 4287791486
0.043417402 0.6108501 -0.1528981 4287791484
0.042003099 0.61057347 -0.1526112 4287857022
0.040979698 0.610385 -0.15247861 4287922304
0.040089801 0.61028892 -0.1523377 4287922561
0.043046001 0.61128229 -0.15191559 4287791997
0.0441771 0.61152768 -0.1522053 4287726717
0.042062599 0.61116338 -0.1515961 4287988351
0.040959202 0.6108259 -0.1517134 4287988351
0.039560702 0.61072779 -0.1514295 4287922559
0.037862498 0.6106205 -0.15121789 4287856510
0.036166999 0.61048549 -0.1511527 4287790717
0.034773801 0.61039698 -0.15108719 4287856252
0.0339122 0.61037529 -0.1509894 4287987067
0.033134501 0.61035228 -0.1508894 4288182906
0.020291399 0.6101923 -0.1507082 4286531663
0.0210492 0.61018509 -0.1507595 4286596943
0.0194437 0.61010718 -0.1507287 4286531662
0.0180957 0.60993791 -0.15078729 4286531918
0.016769299 0.60978973 -0.1507532 4286597453
0.0155867 0.60966688 -0.1506248 4286662730
0.040383499 0.61123061 -0.15081219 4288054402
0.041496001 0.61147702 -0.15080909 4288120195
0.0392325 0.61128962 -0.1503762 4288053888
0.0380169 0.61123192 -0.1501867 4288053375
0.036891799 0.61103278 -0.15032271 4287987326
0.035571799 0.61091387 -0.1503078 4287987324
0.034143101 0.6107986 -0.1502614 4288117626
0.032736499 0.61076599 -0.1500411 4288312695
0.0311753 0.6105696 -0.15010729 4288308331
0.029725799 0.61053997 -0.1499197 4287711834
0.0284105 0.61051267 -0.1498169 4287247949
0.027092 0.61051798 -0.14972989 4286983752
0.0258247 0.61064398 -0.1494658 4286852937
0.024377899 0.6105141 -0.14985409 4286854986
0.0228235 0.61044103 -0.15017471 4286790729
0.021514401 0.61048567 -0.1501945 4286660938
0.020140599 0.61060929 -0.1498923 4286596170
0.018510399 0.61051083 -0.1498915 4286530888
0.017199799 0.6103375 -0.14997239 4286465352
0.0160273 0.61018771 -0.1499202 4286531144
0.0150715 0.61001039 -0.1498877 4286727753
0.0141137 0.60996908 -0.14948601 4286989385
0.0129535 0.60976827 -0.1491908 4287054664
0.036296699 0.61137789 -0.14961401 4288118912
0.0374192 0.61156583 -0.1494932 4288053632
0.035177801 0.61138129 -0.1494004 4288183935
0.0337504 0.61137849 -0.14910281 4288314493
0.032235701 0.61119109 -0.1491054 4288509560
0.0308952 0.61105239 -0.149076 4288439660
0.0296405 0.61097139 -0.1490072 4287907930
0.028374299 0.61092722 -0.1489338 4287378253
0.027107701 0.61092949 -0.14883269 4287048263
0.026071301 0.61100501 -0.1486439 4286917447
0.0248239 0.61095911 -0.14881159 4286918471
0.023140499 0.61099762 -0.1488926 4286853959
0.0214711 0.61093313 -0.14920311 4286855238
0.020127701 0.61111939 -0.1487935 4286724677
0.0188087 0.61106038 -0.14878599 4286594629
0.0174569 0.61081821 -0.1490884 4286464068
0.016435999 0.61060047 -0.1492815 4286530118
0.015208 0.61054331 -0.14888769 4286661191
0.0136217 0.61040789 -0.1482455 4286725956
0.0124543 0.61003357 -0.14828961 4286791748
0.0115603 0.60985368 -0.14795309 4286659649
0.0306137 0.61139959 -0.148305 4288833647
0.0317173 0.6115765 -0.1482185 4288902776
0.0296016 0.61138809 -0.1481318 4288170333
0.0283363 0.61132848 -0.148055 4287508303
0.0270631 0.61131811 -0.1479509 4287243592
0.025683099 0.61132812 -0.1478796 4287112261
0.024047401 0.61139351 -0.147778 4287112773
0.022696501 0.6114096 -0.14788871 4287048261
0.0219121 0.61129582 -0.14828829 4287049285
0.0207667 0.61138529 -0.1481055 4286985029
0.0123744 0.61046863 -0.1470207 4286459451
0.0137739 0.61092907 -0.14698189 4286525245
0.0112466 0.61006361 -0.14710011 4286327611
0.0105049 0.60989809 -0.14663289 4286193464
0.0120702 0.61079729 -0.1454768 4286257462
0.0131869 0.6110602 -0.1458137 4286323255
0.0112856 0.61035579 -0.14616971 4286191670
0.0105362 0.61016792 -0.14569759 4286191414
0.0118088 0.61094999 -0.1442661 4286385715
0.0127646 0.61119431 -0.1445244 4286451509
0.0111298 0.61056131 -0.1450002 4286320179
0.0102039 0.61019939 -0.1446912 4286320179
0.0116826 0.61101907 -0.1435069 4286844726
0.0122996 0.6112141 -0.1434305 4286910264
0.0110009 0.61070943 -0.1436502 4286713398
0.0098131998 0.61020112 -0.1431932 4286713398
-0.097513303 0.61118788 -0.14344659 4291501910
-0.096297003 0.61127049 -0.14350159 4291436374
-0.096744299 0.61163199 -0.14407369 4291502168
-0.097520702 0.6116159 -0.1440964 4291567960
-0.098932996 0.61105227 -0.1432997 4291502167
-0.098396197 0.61160427 -0.144136 4291567960
-0.1000459 0.61094618 -0.14316671 4291567447
-0.099976398 0.61150879 -0.1440578 4291567960
-0.1011186 0.61105341 -0.1433606 4291567447
-0.1015552 0.61154401 -0.1441749 4291567962
-0.1025059 0.6110273 -0.143365 4291567704
-0.1029509 0.6115126 -0.1441828 4291567962
-0.1042088 0.6109215 -0.14325 4291567705
-0.1043099 0.61151248 -0.1442451 4291633755
-0.1054823 0.61110091 -0.1435748 4291633241
-0.1057029 0.6115312 -0.1443402 4291634011
-0.1070278 0.61104971 -0.14353511 4291633497
-0.1071356 0.61163801 -0.1446124 4291634011
-0.1083244 0.61085331 -0.14320309 4291633754
-0.1087024 0.61136609 -0.1441468 4291568475
-0.1094502 0.61092973 -0.1433278 4291633754
-0.1103831 0.61141682 -0.14424179 4291634012
-0.11077 0.61097521 -0.1433748 4291634010
-0.1118247 0.61146188 -0.1442831 4291633756
-0.1121377 0.61102277 -0.14339229 4291634011
-0.1131706 0.61146802 -0.1442176 4291633756
-0.113468 0.61105531 -0.14336909 4291634012
-0.1142407 0.61141682 -0.1440444 4291568477
-0.1147513 0.61108541 -0.1433671 4291634268
-0.115293 0.61150271 -0.14422721 4291568477
-0.1160676 0.61111361 -0.1433917 4291568988
-0.1165634 0.6115303 -0.1443067 4291503197
-0.1174198 0.61112058 -0.1433827 4291503453
-0.1178669 0.61151832 -0.1442969 4291372381
-0.1187662 0.61110991 -0.1433389 4291372381
-0.1191884 0.61149418 -0.1442527 4291306846
-0.1201618 0.6110788 -0.1432534 4291241309
-0.1205996 0.61146623 -0.14419539 4291241310
-0.121829 0.61100489 -0.143078 4291110237
-0.12208 0.61147392 -0.1442378 4291044701
-0.1233684 0.6111213 -0.14336111 4290848092
-0.1234934 0.61149979 -0.1443349 4290782556
-0.1244333 0.61122668 -0.1436322 4290586972
-0.1247845 0.61147869 -0.14431269 4290455129
-0.1255995 0.6111443 -0.14345311 4290391901
-0.1260501 0.61144561 -0.14426941 4290259802
-0.1270158 0.61107069 -0.1432897 4290197601
-0.12742101 0.61142522 -0.1442575 4289999709
-0.1286585 0.6109969 -0.1430894 4290201194
-0.1288538 0.61141962 -0.1442627 4289937510
-0.1301327 0.61107749 -0.1432568 4290402423
-0.1302651 0.6114316 -0.14430059 4290138995
-0.1315449 0.61111772 -0.143317 4290538886
-0.13170759 0.61146528 -0.1444037 4290407042
-0.1332348 0.61120588 -0.14349259 4290741141
-0.1330934 0.61157382 -0.14476959 4290609554
