# .PCD v0.7 - Point Cloud Data file format
VERSION 0.7
FIELDS x y z
SIZE 4 4 4
TYPE F F F
COUNT 1 1 1
WIDTH 1526
HEIGHT 1
VIEWPOINT 0 0 0 1 0 0 0
POINTS 1526
DATA ascii
0.2011984 -0.046680208 -0.63100004
0.20223226 -0.046606231 -0.63000005
0.20358497 -0.046606231 -0.63000005
0.20493771 -0.046606231 -0.63000005
0.20629042 -0.046606231 -0.63000005
0.20731355 -0.046532251 -0.62900001
0.20800065 -0.046384297 -0.62700003
0.20901306 -0.04631032 -0.62600005
0.21002114 -0.046236336 -0.625
0.21136312 -0.046236336 -0.625
0.21304546 -0.04631032 -0.62600005
0.21507452 -0.046458274 -0.62800002
0.21711223 -0.046606231 -0.63000005
0.21881171 -0.046680208 -0.63100004
0.2205155 -0.046754189 -0.63200003
0.22187251 -0.046754189 -0.63200003
0.22322954 -0.046754189 -0.63200003
0.22387585 -0.046606231 -0.63000005
0.22522856 -0.046606231 -0.63000005
0.22622162 -0.046532251 -0.62900001
0.22757219 -0.046532251 -0.62900001
0.22892278 -0.046532251 -0.62900001
0.23027335 -0.046532251 -0.62900001
0.2319922 -0.046606231 -0.63000005
0.23334491 -0.046606231 -0.63000005
0.23469763 -0.046606231 -0.63000005
0.23605037 -0.046606231 -0.63000005
0.23740308 -0.046606231 -0.63000005
0.23875581 -0.046606231 -0.63000005
0.24010853 -0.046606231 -0.63000005
0.24146126 -0.046606231 -0.63000005
0.24281397 -0.046606231 -0.63000005
0.24455428 -0.046680208 -0.63100004
nan nan nan
nan nan nan
nan nan nan
nan nan nan
nan nan nan
0.25268349 -0.046680208 -0.63100004
0.25403836 -0.046680208 -0.63100004
0.25579798 -0.046754189 -0.63200003
0.25674811 -0.046680208 -0.63100004
0.25851202 -0.046754189 -0.63200003
0.26028019 -0.046828166 -0.63300002
0.26163939 -0.046828166 -0.63300002
0.26258308 -0.046754189 -0.63200003
0.2639401 -0.046754189 -0.63200003
0.26529711 -0.046754189 -0.63200003
0.26665413 -0.046754189 -0.63200003
0.26716301 -0.046606231 -0.63000005
0.26851574 -0.046606231 -0.63000005
0.26986846 -0.046606231 -0.63000005
0.27122119 -0.046606231 -0.63000005
0.27214125 -0.046532251 -0.62900001
0.2726222 -0.046384297 -0.62700003
0.27396852 -0.046384297 -0.62700003
0.27531478 -0.046384297 -0.62700003
0.27754354 -0.046532251 -0.62900001
0.27978092 -0.046680208 -0.63100004
0.28158131 -0.046754189 -0.63200003
0.28338602 -0.046828166 -0.63300002
0.28519502 -0.046902142 -0.634
0.28655633 -0.046902142 -0.634
0.28746352 -0.046828166 -0.63300002
0.28882271 -0.046828166 -0.63300002
0.28972343 -0.046754189 -0.63200003
0.29108045 -0.046754189 -0.63200003
0.29197475 -0.046680208 -0.63100004
0.29332963 -0.046680208 -0.63100004
0.2942175 -0.046606231 -0.63000005
0.29557022 -0.046606231 -0.63000005
0.29692295 -0.046606231 -0.63000005
0.29780218 -0.046532251 -0.62900001
0.29915279 -0.046532251 -0.62900001
0.30050334 -0.046532251 -0.62900001
0.30185392 -0.046532251 -0.62900001
0.30320451 -0.046532251 -0.62900001
0.30455509 -0.046532251 -0.62900001
0.30590567 -0.046532251 -0.62900001
0.30725622 -0.046532251 -0.62900001
0.3086068 -0.046532251 -0.62900001
0.30995739 -0.046532251 -0.62900001
0.31180289 -0.046606231 -0.63000005
0.31265855 -0.046532251 -0.62900001
0.3140091 -0.046532251 -0.62900001
0.31535968 -0.046532251 -0.62900001
0.31671026 -0.046532251 -0.62900001
0.31755519 -0.046458274 -0.62800002
0.31839585 -0.046384297 -0.62700003
0.31923214 -0.04631032 -0.62600005
0.32057628 -0.04631032 -0.62600005
0.32192042 -0.04631032 -0.62600005
nan nan nan
nan nan nan
nan nan nan
nan nan nan
nan nan nan
nan nan nan
nan nan nan
nan nan nan
nan nan nan
nan nan nan
nan nan nan
nan nan nan
nan nan nan
nan nan nan
nan nan nan
nan nan nan
nan nan nan
nan nan nan
nan nan nan
nan nan nan
nan nan nan
nan nan nan
nan nan nan
nan nan nan
nan nan nan
nan nan nan
nan nan nan
nan nan nan
nan nan nan
nan nan nan
nan nan nan
nan nan nan
nan nan nan
nan nan nan
nan nan nan
nan nan nan
nan nan nan
nan nan nan
nan nan nan
nan nan nan
nan nan nan
nan nan nan
nan nan nan
nan nan nan
nan nan nan
nan nan nan
nan nan nan
nan nan nan
nan nan nan
nan nan nan
nan nan nan
nan nan nan
nan nan nan
nan nan nan
nan nan nan
nan nan nan
nan nan nan
nan nan nan
nan nan nan
nan nan nan
nan nan nan
nan nan nan
-0.24239527 -0.048415709 -0.63600004
-0.2402717 -0.048263457 -0.634
-0.23740308 -0.047958959 -0.63000005
-0.23380224 -0.047502205 -0.62400001
-0.2313448 -0.04727383 -0.62100005
-0.23001142 -0.04727383 -0.62100005
-0.22867802 -0.04727383 -0.62100005
-0.2269785 -0.0471977 -0.62
-0.22564726 -0.0471977 -0.62
-0.2239542 -0.047121577 -0.61900002
-0.2219058 -0.046969328 -0.61700004
-0.21986596 -0.046817075 -0.61500001
-0.21925618 -0.046969328 -0.61700004
nan nan nan
-0.2162555 -0.046893205 -0.61600006
nan nan nan
-0.2143037 -0.047045451 -0.61800003
-0.21332137 -0.047121577 -0.61900002
nan nan nan
nan nan nan
-0.21001041 -0.04727383 -0.62100005
-0.20867702 -0.04727383 -0.62100005
-0.20734362 -0.04727383 -0.62100005
-0.20601022 -0.04727383 -0.62100005
-0.20467682 -0.04727383 -0.62100005
nan nan nan
nan nan nan
nan nan nan
nan nan nan
nan nan nan
nan nan nan
-0.19471389 -0.047121577 -0.61900002
-0.1936972 -0.0471977 -0.62
-0.19236594 -0.0471977 -0.62
-0.19103469 -0.0471977 -0.62
-0.18939747 -0.047121577 -0.61900002
-0.18776454 -0.047045451 -0.61800003
-0.1861359 -0.046969328 -0.61700004
-0.18451159 -0.046893205 -0.61600006
-0.1831889 -0.046893205 -0.61600006
-0.18186624 -0.046893205 -0.61600006
-0.18083666 -0.046969328 -0.61700004
-0.17980281 -0.047045451 -0.61800003
-0.17876463 -0.047121577 -0.61900002
nan nan nan
nan nan nan
nan nan nan
nan nan nan
nan nan nan
nan nan nan
-0.17000844 -0.04727383 -0.62100005
-0.16867504 -0.04727383 -0.62100005
-0.16761109 -0.047349956 -0.62200004
-0.16654287 -0.047426078 -0.62300003
-0.1652052 -0.047426078 -0.62300003
-0.16386749 -0.047426078 -0.62300003
-0.16279069 -0.047502205 -0.62400001
-0.16196831 -0.047654457 -0.62600005
-0.16062418 -0.047654457 -0.62600005
-0.15877114 -0.047502205 -0.62400001
-0.15717903 -0.047426078 -0.62300003
-0.15584134 -0.047426078 -0.62300003
-0.15425564 -0.047349956 -0.62200004
-0.15316594 -0.047426078 -0.62300003
-0.15182824 -0.047426078 -0.62300003
nan nan nan
-0.14939228 -0.047502205 -0.62400001
nan nan nan
nan nan nan
-0.1449068 -0.047349956 -0.62200004
-0.14380208 -0.047426078 -0.62300003
-0.14269306 -0.047502205 -0.62400001
-0.14135322 -0.047502205 -0.62400001
-0.14001338 -0.047502205 -0.62400001
-0.13867354 -0.047502205 -0.62400001
-0.13733371 -0.047502205 -0.62400001
-0.13599385 -0.047502205 -0.62400001
-0.13443823 -0.047426078 -0.62300003
-0.13310052 -0.047426078 -0.62300003
-0.13176283 -0.047426078 -0.62300003
-0.13042514 -0.047426078 -0.62300003
-0.12908746 -0.047426078 -0.62300003
-0.1275447 -0.047349956 -0.62200004
-0.12600626 -0.04727383 -0.62100005
-0.12467285 -0.04727383 -0.62100005
-0.12333945 -0.04727383 -0.62100005
-0.12200605 -0.04727383 -0.62100005
-0.12106129 -0.047426078 -0.62300003
-0.11972359 -0.047426078 -0.62300003
-0.11876595 -0.047578327 -0.625
-0.11779973 -0.04773058 -0.62700003
-0.11663917 -0.047806706 -0.62800002
-0.11510716 -0.04773058 -0.62700003
-0.11376087 -0.04773058 -0.62700003
-0.1122353 -0.047654457 -0.62600005
-0.11071402 -0.047578327 -0.625
-0.10919704 -0.047502205 -0.62400001
-0.10768436 -0.047426078 -0.62300003
-0.10634666 -0.047426078 -0.62300003
-0.10484041 -0.047349956 -0.62200004
-0.10350487 -0.047349956 -0.62200004
-0.10200506 -0.04727383 -0.62100005
-0.10067166 -0.04727383 -0.62100005
-0.09949822 -0.047349956 -0.62200004
-0.098320492 -0.047426078 -0.62300003
-0.096827134 -0.047349956 -0.62200004
-0.095491588 -0.047349956 -0.62200004
nan nan nan
-0.093417414 -0.047654457 -0.62600005
-0.092367433 -0.047806706 -0.62800002
nan nan nan
nan nan nan
-0.088040866 -0.047654457 -0.62600005
-0.08655823 -0.047578327 -0.625
-0.085079901 -0.047502205 -0.62400001
-0.083740063 -0.047502205 -0.62400001
-0.082268171 -0.047426078 -0.62300003
-0.080930471 -0.047426078 -0.62300003
-0.079720534 -0.047502205 -0.62400001
-0.078380696 -0.047502205 -0.62400001
-0.077040859 -0.047502205 -0.62400001
-0.075701013 -0.047502205 -0.62400001
-0.07448034 -0.047578327 -0.625
-0.07302133 -0.047502205 -0.62400001
-0.071681492 -0.047502205 -0.62400001
-0.070341647 -0.047502205 -0.62400001
-0.068891227 -0.047426078 -0.62300003
-0.067553535 -0.047426078 -0.62300003
-0.066322125 -0.047502205 -0.62400001
-0.064982288 -0.047502205 -0.62400001
-0.063744433 -0.047578327 -0.625
-0.062502295 -0.047654457 -0.62600005
-0.061255857 -0.04773058 -0.62700003
-0.059909575 -0.04773058 -0.62700003
-0.058563288 -0.04773058 -0.62700003
-0.057217006 -0.04773058 -0.62700003
-0.055870727 -0.04773058 -0.62700003
-0.054524444 -0.04773058 -0.62700003
-0.053093348 -0.047654457 -0.62600005
-0.051666539 -0.047578327 -0.625
-0.050405078 -0.047654457 -0.62600005
-0.049060941 -0.047654457 -0.62600005
-0.047793031 -0.04773058 -0.62700003
-0.046446744 -0.04773058 -0.62700003
-0.045172397 -0.047806706 -0.62800002
-0.043893747 -0.047882829 -0.62900001
-0.042475533 -0.047806706 -0.62800002
-0.041127104 -0.047806706 -0.62800002
-0.039778676 -0.047806706 -0.62800002
-0.038491439 -0.047882829 -0.62900001
-0.037081815 -0.047806706 -0.62800002
-0.035676487 -0.04773058 -0.62700003
-0.034330204 -0.04773058 -0.62700003
-0.032983921 -0.04773058 -0.62700003
-0.031637639 -0.04773058 -0.62700003
-0.030243047 -0.047654457 -0.62600005
-0.028852744 -0.047578327 -0.625
-0.027510757 -0.047578327 -0.625
-0.026168767 -0.047578327 -0.625
-0.02482678 -0.047578327 -0.625
-0.023484791 -0.047578327 -0.625
-0.022142805 -0.047578327 -0.625
-0.020834098 -0.047654457 -0.62600005
-0.019489964 -0.047654457 -0.62600005
-0.018174814 -0.04773058 -0.62700003
-0.016828531 -0.04773058 -0.62700003
-0.015506942 -0.047806706 -0.62800002
-0.014135967 -0.04773058 -0.62700003
-0.012769287 -0.047654457 -0.62600005
-0.011425151 -0.047654457 -0.62600005
-0.010064911 -0.047578327 -0.625
-0.0087368796 -0.047654457 -0.62600005
-0.0073927445 -0.047654457 -0.62600005
-0.006048609 -0.047654457 -0.62600005
-0.0047119888 -0.04773058 -0.62700003
-0.0033710743 -0.047806706 -0.62800002
-0.0020258653 -0.047882829 -0.62900001
-0.00067528844 -0.047882829 -0.62900001
0.00067528844 -0.047882829 -0.62900001
0.0020258653 -0.047882829 -0.62900001
0.003376442 -0.047882829 -0.62900001
0.004727019 -0.047882829 -0.62900001
0.0060872585 -0.047958959 -0.63000005
0.0074399826 -0.047958959 -0.63000005
0.0087927068 -0.047958959 -0.63000005
0.010145431 -0.047958959 -0.63000005
0.011498156 -0.047958959 -0.63000005
0.01285088 -0.047958959 -0.63000005
0.014203604 -0.047958959 -0.63000005
0.015531634 -0.047882829 -0.62900001
0.016855372 -0.047806706 -0.62800002
0.018174814 -0.04773058 -0.62700003
0.019521097 -0.04773058 -0.62700003
0.020900659 -0.047806706 -0.62800002
0.022213662 -0.04773058 -0.62700003
0.023522368 -0.047654457 -0.62600005
0.024866505 -0.047654457 -0.62600005
0.02621064 -0.047654457 -0.62600005
0.027598793 -0.04773058 -0.62700003
0.028945073 -0.04773058 -0.62700003
0.030291358 -0.04773058 -0.62700003
0.031637639 -0.04773058 -0.62700003
0.032983921 -0.04773058 -0.62700003
0.034384955 -0.047806706 -0.62800002
0.035790287 -0.047882829 -0.62900001
0.037140861 -0.047882829 -0.62900001
0.038430247 -0.047806706 -0.62800002
0.039842017 -0.047882829 -0.62900001
0.041192591 -0.047882829 -0.62900001
0.042475533 -0.047806706 -0.62800002
0.043823965 -0.047806706 -0.62800002
0.045100465 -0.04773058 -0.62700003
0.046446744 -0.04773058 -0.62700003
0.047793031 -0.04773058 -0.62700003
0.049139313 -0.04773058 -0.62700003
0.050485596 -0.04773058 -0.62700003
0.051997207 -0.047882829 -0.62900001
0.053347785 -0.047882829 -0.62900001
0.054785326 -0.047958959 -0.63000005
0.056227159 -0.048035081 -0.63100004
nan nan nan
nan nan nan
0.060196225 -0.047958959 -0.63000005
0.061451249 -0.047882829 -0.62900001
0.062602133 -0.04773058 -0.62700003
0.063948423 -0.04773058 -0.62700003
0.065294705 -0.04773058 -0.62700003
0.066640988 -0.04773058 -0.62700003
0.067987263 -0.04773058 -0.62700003
0.069444127 -0.047806706 -0.62800002
0.071018018 -0.047958959 -0.63000005
0.072485618 -0.048035081 -0.63100004
0.073840484 -0.048035081 -0.63100004
0.075195357 -0.048035081 -0.63100004
0.07655023 -0.048035081 -0.63100004
0.077905104 -0.048035081 -0.63100004
0.079259969 -0.048035081 -0.63100004
0.080614842 -0.048035081 -0.63100004
0.081839807 -0.047958959 -0.63000005
0.083192535 -0.047958959 -0.63000005
0.084411055 -0.047882829 -0.62900001
0.085761636 -0.047882829 -0.62900001
0.087112203 -0.047882829 -0.62900001
0.08832214 -0.047806706 -0.62800002
0.089670576 -0.047806706 -0.62800002
0.090874068 -0.04773058 -0.62700003
0.092073277 -0.047654457 -0.62600005
0.093417414 -0.047654457 -0.62600005
0.09476155 -0.047654457 -0.62600005
0.096259207 -0.04773058 -0.62700003
0.097605489 -0.04773058 -0.62700003
0.098951764 -0.04773058 -0.62700003
0.10029805 -0.04773058 -0.62700003
0.10180644 -0.047806706 -0.62800002
0.10315488 -0.047806706 -0.62800002
0.1045033 -0.047806706 -0.62800002
0.10568319 -0.04773058 -0.62700003
0.10702947 -0.04773058 -0.62700003
0.1085486 -0.047806706 -0.62800002
0.11007201 -0.047882829 -0.62900001
0.11142259 -0.047882829 -0.62900001
0.11277317 -0.047882829 -0.62900001
0.11412375 -0.047882829 -0.62900001
0.11565791 -0.047958959 -0.63000005
0.1168249 -0.047882829 -0.62900001
0.11817548 -0.047882829 -0.62900001
0.11952606 -0.047882829 -0.62900001
0.12087663 -0.047882829 -0.62900001
0.1222272 -0.047882829 -0.62900001
0.12357778 -0.047882829 -0.62900001
0.12492836 -0.047882829 -0.62900001
0.12627894 -0.047882829 -0.62900001
0.12762952 -0.047882829 -0.62900001
0.12898009 -0.047882829 -0.62900001
0.13033067 -0.047882829 -0.62900001
0.13147189 -0.047806706 -0.62800002
0.13303182 -0.047882829 -0.62900001
0.13395511 -0.04773058 -0.62700003
0.1348698 -0.047578327 -0.625
0.13599385 -0.047502205 -0.62400001
0.13711362 -0.047426078 -0.62300003
0.13822909 -0.047349956 -0.62200004
0.13956463 -0.047349956 -0.62200004
0.14067364 -0.04727383 -0.62100005
0.14223571 -0.047349956 -0.62200004
0.14380208 -0.047426078 -0.62300003
0.14537275 -0.047502205 -0.62400001
0.1469477 -0.047578327 -0.625
0.14852697 -0.047654457 -0.62600005
0.15011051 -0.04773058 -0.62700003
0.15145679 -0.04773058 -0.62700003
0.15280306 -0.04773058 -0.62700003
0.1539035 -0.047654457 -0.62600005
0.15524763 -0.047654457 -0.62600005
0.15659179 -0.047654457 -0.62600005
0.1579359 -0.047654457 -0.62600005
0.15928003 -0.047654457 -0.62600005
0.16088077 -0.04773058 -0.62700003
0.16248578 -0.047806706 -0.62800002
0.16409509 -0.047882829 -0.62900001
0.16570871 -0.047958959 -0.63000005
0.16679625 -0.047882829 -0.62900001
0.16841416 -0.047958959 -0.63000005
0.16976687 -0.047958959 -0.63000005
0.1711196 -0.047958959 -0.63000005
0.17247231 -0.047958959 -0.63000005
0.17382506 -0.047958959 -0.63000005
0.1748997 -0.047882829 -0.62900001
0.17625028 -0.047882829 -0.62900001
0.17760086 -0.047882829 -0.62900001
0.17866695 -0.047806706 -0.62800002
0.18001537 -0.047806706 -0.62800002
0.18136379 -0.047806706 -0.62800002
0.18242128 -0.04773058 -0.62700003
0.18406065 -0.047806706 -0.62800002
0.18570432 -0.047882829 -0.62900001
0.18705489 -0.047882829 -0.62900001
0.18870503 -0.047958959 -0.63000005
0.19005774 -0.047958959 -0.63000005
0.19171427 -0.048035081 -0.63100004
0.19306916 -0.048035081 -0.63100004
0.19411591 -0.047958959 -0.63000005
0.19515836 -0.047882829 -0.62900001
0.19619651 -0.047806706 -0.62800002
0.1972304 -0.04773058 -0.62700003
0.19857667 -0.04773058 -0.62700003
0.20024182 -0.047806706 -0.62800002
0.20159024 -0.047806706 -0.62800002
0.20293866 -0.047806706 -0.62800002
0.2042871 -0.047806706 -0.62800002
0.20530808 -0.04773058 -0.62700003
0.20665437 -0.04773058 -0.62700003
0.20700543 -0.047502205 -0.62400001
0.20801139 -0.047426078 -0.62300003
0.20934908 -0.047426078 -0.62300003
0.21068676 -0.047426078 -0.62300003
0.21202447 -0.047426078 -0.62300003
0.21370463 -0.047502205 -0.62400001
0.2153891 -0.047578327 -0.625
0.21742463 -0.04773058 -0.62700003
0.21946874 -0.047882829 -0.62900001
0.22081931 -0.047882829 -0.62900001
0.22216991 -0.047882829 -0.62900001
0.22280976 -0.04773058 -0.62700003
0.22379853 -0.047654457 -0.62600005
0.224783 -0.047578327 -0.625
0.22612499 -0.047578327 -0.625
0.22746699 -0.047578327 -0.625
0.22917508 -0.047654457 -0.62600005
0.23051922 -0.047654457 -0.62600005
0.23223373 -0.04773058 -0.62700003
0.23358001 -0.04773058 -0.62700003
0.2349263 -0.04773058 -0.62700003
0.23627257 -0.04773058 -0.62700003
0.23761888 -0.04773058 -0.62700003
0.23896515 -0.04773058 -0.62700003
0.23992817 -0.047654457 -0.62600005
0.24165772 -0.04773058 -0.62700003
0.24339157 -0.047806706 -0.62800002
nan nan nan
nan nan nan
nan nan nan
nan nan nan
0.24933712 -0.047654457 -0.62600005
0.25068125 -0.047654457 -0.62600005
0.2520254 -0.047654457 -0.62600005
0.25377426 -0.04773058 -0.62700003
0.25512055 -0.04773058 -0.62700003
0.25687587 -0.047806706 -0.62800002
0.25863546 -0.047882829 -0.62900001
0.25998604 -0.047882829 -0.62900001
0.26133662 -0.047882829 -0.62900001
0.26226959 -0.047806706 -0.62800002
0.26319823 -0.04773058 -0.62700003
0.26370066 -0.047578327 -0.625
0.26461858 -0.047502205 -0.62400001
0.26595843 -0.047502205 -0.62400001
0.26729828 -0.047502205 -0.62400001
0.2686381 -0.047502205 -0.62400001
0.26997796 -0.047502205 -0.62400001
0.27131778 -0.047502205 -0.62400001
0.27265763 -0.047502205 -0.62400001
0.27399749 -0.047502205 -0.62400001
0.27533731 -0.047502205 -0.62400001
0.27756396 -0.047654457 -0.62600005
0.28024468 -0.047882829 -0.62900001
0.28204298 -0.047958959 -0.63000005
0.28429535 -0.048111208 -0.63200003
0.2856524 -0.048111208 -0.63200003
0.28655526 -0.048035081 -0.63100004
0.28791016 -0.048035081 -0.63100004
0.28880659 -0.047958959 -0.63000005
0.28969872 -0.047882829 -0.62900001
0.29058659 -0.047806706 -0.62800002
0.29147017 -0.04773058 -0.62700003
0.29281646 -0.04773058 -0.62700003
0.29369357 -0.047654457 -0.62600005
0.29503772 -0.047654457 -0.62600005
0.29590839 -0.047578327 -0.625
0.29725039 -0.047578327 -0.625
0.29859236 -0.047578327 -0.625
0.29993433 -0.047578327 -0.625
0.30127633 -0.047578327 -0.625
0.30261832 -0.047578327 -0.625
0.30347398 -0.047502205 -0.62400001
0.30530229 -0.047578327 -0.625
0.30664429 -0.047578327 -0.625
0.30798626 -0.047578327 -0.625
0.30883333 -0.047502205 -0.62400001
0.31017318 -0.047502205 -0.62400001
0.31151301 -0.047502205 -0.62400001
0.31285286 -0.047502205 -0.62400001
0.3136892 -0.047426078 -0.62300003
0.31502691 -0.047426078 -0.62300003
0.31687239 -0.047502205 -0.62400001
0.31770226 -0.047426078 -0.62300003
0.31903997 -0.047426078 -0.62300003
0.31986344 -0.047349956 -0.62200004
nan nan nan
nan nan nan
nan nan nan
nan nan nan
nan nan nan
nan nan nan
nan nan nan
nan nan nan
nan nan nan
nan nan nan
nan nan nan
nan nan nan
nan nan nan
nan nan nan
nan nan nan
nan nan nan
nan nan nan
nan nan nan
nan nan nan
nan nan nan
nan nan nan
nan nan nan
nan nan nan
nan nan nan
nan nan nan
nan nan nan
nan nan nan
nan nan nan
nan nan nan
nan nan nan
nan nan nan
nan nan nan
nan nan nan
nan nan nan
nan nan nan
nan nan nan
nan nan nan
nan nan nan
nan nan nan
nan nan nan
nan nan nan
nan nan nan
nan nan nan
nan nan nan
nan nan nan
nan nan nan
nan nan nan
nan nan nan
nan nan nan
nan nan nan
nan nan nan
nan nan nan
nan nan nan
nan nan nan
nan nan nan
nan nan nan
nan nan nan
nan nan nan
nan nan nan
nan nan nan
nan nan nan
nan nan nan
nan nan nan
nan nan nan
nan nan nan
-0.23155415 -0.04837241 -0.61800003
-0.23022719 -0.04837241 -0.61800003
-0.22927062 -0.048450682 -0.61900002
-0.22794153 -0.048450682 -0.61900002
-0.2266124 -0.048450682 -0.61900002
-0.22491936 -0.04837241 -0.61800003
-0.222507 -0.048137594 -0.61500001
-0.22010754 -0.047902778 -0.61200005
-0.21807843 -0.04774623 -0.61000001
-0.21712402 -0.047824502 -0.611
-0.2158121 -0.047824502 -0.611
-0.21485123 -0.047902778 -0.61200005
-0.21388608 -0.04798105 -0.61300004
-0.21256985 -0.04798105 -0.61300004
-0.21194287 -0.048137594 -0.61500001
-0.21027988 -0.048059322 -0.61400002
-0.20930184 -0.048137594 -0.61500001
-0.20865768 -0.048294138 -0.61700004
-0.20733288 -0.048294138 -0.61700004
-0.20634197 -0.04837241 -0.61800003
-0.20534673 -0.048450682 -0.61900002
-0.20434722 -0.048528954 -0.62
-0.20301595 -0.048528954 -0.62
nan nan nan
nan nan nan
nan nan nan
nan nan nan
nan nan nan
-0.19408478 -0.048294138 -0.61700004
-0.19275996 -0.048294138 -0.61700004
-0.19174542 -0.04837241 -0.61800003
-0.19041845 -0.04837241 -0.61800003
-0.18878554 -0.048294138 -0.61700004
-0.18715689 -0.04821587 -0.61600006
-0.18553254 -0.048137594 -0.61500001
-0.1839125 -0.048059322 -0.61400002
-0.18259412 -0.048059322 -0.61400002
-0.18127577 -0.048059322 -0.61400002
-0.18054357 -0.04821587 -0.61600006
-0.17922091 -0.04821587 -0.61600006
-0.17818704 -0.048294138 -0.61700004
-0.17714888 -0.04837241 -0.61800003
-0.17610642 -0.048450682 -0.61900002
-0.17477731 -0.048450682 -0.61900002
nan nan nan
nan nan nan
nan nan nan
-0.16946089 -0.048450682 -0.61900002
-0.1681318 -0.048450682 -0.61900002
-0.16707215 -0.048528954 -0.62
-0.16574091 -0.048528954 -0.62
-0.16440965 -0.048528954 -0.62
-0.1630784 -0.048528954 -0.62
-0.16200805 -0.04860723 -0.62100005
-0.16067463 -0.04860723 -0.62100005
-0.15934125 -0.04860723 -0.62100005
-0.15775338 -0.048528954 -0.62
-0.15642214 -0.048528954 -0.62
-0.15484075 -0.048450682 -0.61900002
-0.15326364 -0.04837241 -0.61800003
-0.15218252 -0.048450682 -0.61900002
-0.15085343 -0.048450682 -0.61900002
-0.14928277 -0.04837241 -0.61800003
-0.14819522 -0.048450682 -0.61900002
-0.14686611 -0.048450682 -0.61900002
-0.14530189 -0.04837241 -0.61800003
-0.14397493 -0.04837241 -0.61800003
-0.14287879 -0.048450682 -0.61900002
-0.14177836 -0.048528954 -0.62
-0.14044711 -0.048528954 -0.62
-0.13911586 -0.048528954 -0.62
-0.13800685 -0.04860723 -0.62100005
-0.13667345 -0.04860723 -0.62100005
-0.13555798 -0.048685502 -0.62200004
-0.13400665 -0.04860723 -0.62100005
-0.13267325 -0.04860723 -0.62100005
-0.13133985 -0.04860723 -0.62100005
-0.13000645 -0.04860723 -0.62100005
-0.12846585 -0.048528954 -0.62
-0.12713459 -0.048528954 -0.62
-0.12560043 -0.048450682 -0.61900002
-0.12427133 -0.048450682 -0.61900002
-0.12314083 -0.048528954 -0.62
-0.12180958 -0.048528954 -0.62
-0.12067265 -0.04860723 -0.62100005
-0.11953142 -0.048685502 -0.62200004
-0.1183859 -0.048763774 -0.62300003
-0.11723609 -0.048842046 -0.62400001
-0.11608198 -0.048920318 -0.625
-0.1145564 -0.048842046 -0.62400001
-0.11321656 -0.048842046 -0.62400001
-0.11169743 -0.048763774 -0.62300003
-0.11035974 -0.048763774 -0.62300003
-0.10867205 -0.04860723 -0.62100005
-0.10733867 -0.04860723 -0.62100005
-0.10600527 -0.04860723 -0.62100005
-0.1045033 -0.048528954 -0.62
-0.10317205 -0.048528954 -0.62
-0.10167654 -0.048450682 -0.61900002
-0.10002321 -0.048294138 -0.61700004
-0.098858364 -0.04837241 -0.61800003
-0.097689219 -0.048450682 -0.61900002
-0.095893115 -0.04821587 -0.61600006
-0.095031016 -0.048450682 -0.61900002
-0.09385328 -0.048528954 -0.62
-0.092671268 -0.04860723 -0.62100005
-0.091779105 -0.048842046 -0.62400001
nan nan nan
nan nan nan
nan nan nan
-0.086281247 -0.048763774 -0.62300003
nan nan nan
-0.083471671 -0.048685502 -0.62200004
-0.082136117 -0.048685502 -0.62200004
-0.080800571 -0.048685502 -0.62200004
-0.079465024 -0.048685502 -0.62200004
-0.078129478 -0.048685502 -0.62200004
-0.076670475 -0.04860723 -0.62100005
-0.075458385 -0.048685502 -0.62200004
-0.074122839 -0.048685502 -0.62200004
nan nan nan
-0.071336873 -0.04860723 -0.62100005
-0.069890745 -0.048528954 -0.62
-0.06855949 -0.048528954 -0.62
-0.067228235 -0.048528954 -0.62
-0.066003278 -0.04860723 -0.62100005
-0.064669877 -0.04860723 -0.62100005
-0.063438468 -0.048685502 -0.62200004
-0.062202759 -0.048763774 -0.62300003
-0.060962766 -0.048842046 -0.62400001
-0.059622921 -0.048842046 -0.62400001
-0.058283079 -0.048842046 -0.62400001
-0.056851983 -0.048763774 -0.62300003
-0.055514295 -0.048763774 -0.62300003
-0.054089639 -0.048685502 -0.62200004
-0.052669279 -0.04860723 -0.62100005
-0.051335879 -0.04860723 -0.62100005
-0.050002482 -0.04860723 -0.62100005
-0.048669081 -0.04860723 -0.62100005
-0.047335681 -0.04860723 -0.62100005
-0.046076357 -0.048685502 -0.62200004
-0.044812743 -0.048763774 -0.62300003
-0.04347505 -0.048763774 -0.62300003
-0.042137355 -0.048763774 -0.62300003
-0.040865146 -0.048842046 -0.62400001
-0.039525311 -0.048842046 -0.62400001
-0.038246661 -0.048920318 -0.625
-0.03690467 -0.048920318 -0.625
-0.035505787 -0.048842046 -0.62400001
-0.034165945 -0.048842046 -0.62400001
-0.032826103 -0.048842046 -0.62400001
-0.031486262 -0.048842046 -0.62400001
-0.03009811 -0.048763774 -0.62300003
-0.028760416 -0.048763774 -0.62300003
-0.027422722 -0.048763774 -0.62300003
-0.026043158 -0.048685502 -0.62200004
-0.024707614 -0.048685502 -0.62200004
-0.023372065 -0.048685502 -0.62200004
-0.022036521 -0.048685502 -0.62200004
-0.020700973 -0.048685502 -0.62200004
-0.019365426 -0.048685502 -0.62200004
-0.01802988 -0.048685502 -0.62200004
-0.016721172 -0.048763774 -0.62300003
-0.015383479 -0.048763774 -0.62300003
-0.014045785 -0.048763774 -0.62300003
-0.012708091 -0.048763774 -0.62300003
-0.011370398 -0.048763774 -0.62300003
-0.010048808 -0.048842046 -0.62400001
-0.008708966 -0.048842046 -0.62400001
-0.0073691253 -0.048842046 -0.62400001
-0.0060292841 -0.048842046 -0.62400001
-0.0046894434 -0.048842046 -0.62400001
-0.0033496025 -0.048842046 -0.62400001
-0.002012982 -0.048920318 -0.625
-0.00067099405 -0.048920318 -0.625
0.00067099405 -0.048920318 -0.625
0.002012982 -0.048920318 -0.625
0.0033603385 -0.048998594 -0.62600005
0.004704474 -0.048998594 -0.62600005
0.0060582715 -0.049076863 -0.62700003
0.0074163633 -0.049155135 -0.62800002
0.0087647932 -0.049155135 -0.62800002
0.01009712 -0.049076863 -0.62700003
0.011425151 -0.048998594 -0.62600005
0.012769287 -0.048998594 -0.62600005
0.014090875 -0.048920318 -0.625
0.015408171 -0.048842046 -0.62400001
0.016748013 -0.048842046 -0.62400001
0.018087853 -0.048842046 -0.62400001
0.019427694 -0.048842046 -0.62400001
0.020767534 -0.048842046 -0.62400001
0.022107376 -0.048842046 -0.62400001
0.023447216 -0.048842046 -0.62400001
0.024747336 -0.048763774 -0.62300003
0.026126897 -0.048842046 -0.62400001
0.02746674 -0.048842046 -0.62400001
0.02880658 -0.048842046 -0.62400001
0.030146422 -0.048842046 -0.62400001
0.031486262 -0.048842046 -0.62400001
0.032826103 -0.048842046 -0.62400001
0.034165945 -0.048842046 -0.62400001
0.035505787 -0.048842046 -0.62400001
0.036845624 -0.048842046 -0.62400001
0.038185466 -0.048842046 -0.62400001
0.039525311 -0.048842046 -0.62400001
0.040930636 -0.048920318 -0.625
0.042272624 -0.048920318 -0.625
0.043544833 -0.048842046 -0.62400001
0.044884674 -0.048842046 -0.62400001
0.046224512 -0.048842046 -0.62400001
0.047564354 -0.048842046 -0.62400001
0.048904195 -0.048842046 -0.62400001
0.050244037 -0.048842046 -0.62400001
0.051583875 -0.048842046 -0.62400001
nan nan nan
0.054350518 -0.048920318 -0.625
nan nan nan
nan nan nan
nan nan nan
0.059814025 -0.048998594 -0.62600005
0.061060458 -0.048920318 -0.625
0.062302601 -0.048842046 -0.62400001
0.063540451 -0.048763774 -0.62300003
0.064878151 -0.048763774 -0.62300003
0.066215843 -0.048763774 -0.62300003
0.067553535 -0.048763774 -0.62300003
0.068891227 -0.048763774 -0.62300003
0.070228927 -0.048763774 -0.62300003
0.071681492 -0.048842046 -0.62400001
0.07302133 -0.048842046 -0.62400001
0.07448034 -0.048920318 -0.625
0.075822331 -0.048920318 -0.625
0.077040859 -0.048842046 -0.62400001
0.078380696 -0.048842046 -0.62400001
0.079720534 -0.048842046 -0.62400001
0.08106038 -0.048842046 -0.62400001
0.082400218 -0.048842046 -0.62400001
0.083740063 -0.048842046 -0.62400001
0.085079901 -0.048842046 -0.62400001
0.086419739 -0.048842046 -0.62400001
0.087759577 -0.048842046 -0.62400001
0.089099422 -0.048842046 -0.62400001
0.09043926 -0.048842046 -0.62400001
0.091632023 -0.048763774 -0.62300003
0.092969723 -0.048763774 -0.62300003
0.094307415 -0.048763774 -0.62300003
0.095645107 -0.048763774 -0.62300003
0.096982807 -0.048763774 -0.62300003
0.098320492 -0.048763774 -0.62300003
0.099658184 -0.048763774 -0.62300003
0.10115799 -0.048842046 -0.62400001
0.10249783 -0.048842046 -0.62400001
0.10383768 -0.048842046 -0.62400001
0.10500897 -0.048763774 -0.62300003
0.10634666 -0.048763774 -0.62300003
0.10768436 -0.048763774 -0.62300003
0.10902204 -0.048763774 -0.62300003
0.11035974 -0.048763774 -0.62300003
0.11187672 -0.048842046 -0.62400001
0.11339799 -0.048920318 -0.625
0.11492357 -0.048998594 -0.62600005
0.11645344 -0.049076863 -0.62700003
0.11779973 -0.049076863 -0.62700003
0.11914601 -0.049076863 -0.62700003
0.12049229 -0.049076863 -0.62700003
0.12164425 -0.048998594 -0.62600005
0.12298839 -0.048998594 -0.62600005
0.12433252 -0.048998594 -0.62600005
0.12567666 -0.048998594 -0.62600005
0.12702079 -0.048998594 -0.62600005
0.12795481 -0.048842046 -0.62400001
0.12929466 -0.048842046 -0.62400001
0.13063449 -0.048842046 -0.62400001
0.13197432 -0.048842046 -0.62400001
0.13288689 -0.048685502 -0.62200004
0.13400665 -0.04860723 -0.62100005
0.13512211 -0.048528954 -0.62
0.13645336 -0.048528954 -0.62
0.1377846 -0.048528954 -0.62
0.13911586 -0.048528954 -0.62
0.14044711 -0.048528954 -0.62
0.14200704 -0.04860723 -0.62100005
0.14334044 -0.04860723 -0.62100005
0.1449068 -0.048685502 -0.62200004
0.14647748 -0.048763774 -0.62300003
0.14805242 -0.048842046 -0.62400001
0.14939228 -0.048842046 -0.62400001
0.15073211 -0.048842046 -0.62400001
0.15207194 -0.048842046 -0.62400001
0.15341179 -0.048842046 -0.62400001
0.15450363 -0.048763774 -0.62300003
0.15584134 -0.048763774 -0.62300003
0.15717903 -0.048763774 -0.62300003
0.15826227 -0.048685502 -0.62200004
0.15985441 -0.048763774 -0.62300003
0.1611921 -0.048763774 -0.62300003
0.16279069 -0.048842046 -0.62400001
0.16413051 -0.048842046 -0.62400001
0.16547036 -0.048842046 -0.62400001
0.16707751 -0.048920318 -0.625
0.16868898 -0.048998594 -0.62600005
0.17003313 -0.048998594 -0.62600005
0.17165102 -0.049076863 -0.62700003
0.17299731 -0.049076863 -0.62700003
0.17434359 -0.049076863 -0.62700003
0.17540967 -0.048998594 -0.62600005
0.17647144 -0.048920318 -0.625
0.17752893 -0.048842046 -0.62400001
0.17858212 -0.048763774 -0.62300003
0.17991981 -0.048763774 -0.62300003
0.18125752 -0.048763774 -0.62300003
0.18259519 -0.048763774 -0.62300003
0.18422814 -0.048842046 -0.62400001
0.18556798 -0.048842046 -0.62400001
0.18690783 -0.048842046 -0.62400001
0.18854932 -0.048920318 -0.625
0.18928367 -0.048763774 -0.62300003
0.19092734 -0.048842046 -0.62400001
0.19195905 -0.048763774 -0.62300003
0.19298649 -0.048685502 -0.62200004
0.19463444 -0.048763774 -0.62300003
0.19597214 -0.048763774 -0.62300003
0.19730984 -0.048763774 -0.62300003
0.19896638 -0.048842046 -0.62400001
0.20030622 -0.048842046 -0.62400001
0.20196921 -0.048920318 -0.625
0.2033112 -0.048920318 -0.625
0.20432574 -0.048842046 -0.62400001
0.20566559 -0.048842046 -0.62400001
0.2066737 -0.048763774 -0.62300003
0.20767751 -0.048685502 -0.62200004
0.20901304 -0.048685502 -0.62200004
0.21034859 -0.048685502 -0.62200004
0.21134382 -0.04860723 -0.62100005
0.21301968 -0.048685502 -0.62200004
0.21469986 -0.048763774 -0.62300003
0.21603754 -0.048763774 -0.62300003
0.21772416 -0.048842046 -0.62400001
0.219064 -0.048842046 -0.62400001
0.22040385 -0.048842046 -0.62400001
0.22174367 -0.048842046 -0.62400001
0.22272602 -0.048763774 -0.62300003
0.22406371 -0.048763774 -0.62300003
0.2254014 -0.048763774 -0.62300003
0.22673911 -0.048763774 -0.62300003
0.22807679 -0.048763774 -0.62300003
0.22978273 -0.048842046 -0.62400001
0.23075218 -0.048763774 -0.62300003
0.23246239 -0.048842046 -0.62400001
0.23380224 -0.048842046 -0.62400001
0.23514208 -0.048842046 -0.62400001
0.23648193 -0.048842046 -0.62400001
0.23782176 -0.048842046 -0.62400001
0.23916161 -0.048842046 -0.62400001
0.24050145 -0.048842046 -0.62400001
0.2418413 -0.048842046 -0.62400001
nan nan nan
nan nan nan
nan nan nan
nan nan nan
nan nan nan
0.24947989 -0.048763774 -0.62300003
0.2508176 -0.048763774 -0.62300003
0.25256002 -0.048842046 -0.62400001
0.25389984 -0.048842046 -0.62400001
0.2552397 -0.048842046 -0.62400001
0.25616837 -0.048763774 -0.62300003
0.2579194 -0.048842046 -0.62400001
0.25925922 -0.048842046 -0.62400001
0.26059908 -0.048842046 -0.62400001
0.26151913 -0.048763774 -0.62300003
0.26243493 -0.048685502 -0.62200004
0.26377046 -0.048685502 -0.62200004
0.26510599 -0.048685502 -0.62200004
0.26644155 -0.048685502 -0.62200004
0.26734659 -0.04860723 -0.62100005
0.26868001 -0.04860723 -0.62100005
0.27044818 -0.048685502 -0.62200004
0.27178374 -0.048685502 -0.62200004
0.27268019 -0.04860723 -0.62100005
0.27401358 -0.04860723 -0.62100005
0.27534699 -0.04860723 -0.62100005
0.27757147 -0.048763774 -0.62300003
0.27890915 -0.048763774 -0.62300003
nan nan nan
0.28339249 -0.049076863 -0.62700003
0.28519288 -0.049155135 -0.62800002
0.28654131 -0.049155135 -0.62800002
0.28743133 -0.049076863 -0.62700003
0.28831702 -0.048998594 -0.62600005
0.28919843 -0.048920318 -0.625
0.29007557 -0.048842046 -0.62400001
0.29094842 -0.048763774 -0.62300003
0.2922861 -0.048763774 -0.62300003
0.29362381 -0.048763774 -0.62300003
0.29496148 -0.048763774 -0.62300003
0.2958236 -0.048685502 -0.62200004
0.29715914 -0.048685502 -0.62200004
0.29849467 -0.048685502 -0.62200004
0.29983023 -0.048685502 -0.62200004
0.30116576 -0.048685502 -0.62200004
0.30250132 -0.048685502 -0.62200004
0.30334839 -0.04860723 -0.62100005
0.30468178 -0.04860723 -0.62100005
0.30601519 -0.04860723 -0.62100005
nan nan nan
nan nan nan
0.31001538 -0.04860723 -0.62100005
0.31134877 -0.04860723 -0.62100005
0.31318569 -0.048685502 -0.62200004
0.3140156 -0.04860723 -0.62100005
0.31585678 -0.048685502 -0.62200004
0.31719232 -0.048685502 -0.62200004
0.31852788 -0.048685502 -0.62200004
0.3193492 -0.04860723 -0.62100005
nan nan nan
nan nan nan
nan nan nan
nan nan nan
nan nan nan
nan nan nan
nan nan nan
nan nan nan
nan nan nan
nan nan nan
nan nan nan
nan nan nan
nan nan nan
nan nan nan
nan nan nan
nan nan nan
nan nan nan
nan nan nan
nan nan nan
nan nan nan
nan nan nan
nan nan nan
nan nan nan
nan nan nan
nan nan nan
nan nan nan
nan nan nan
nan nan nan
nan nan nan
nan nan nan
nan nan nan
nan nan nan
nan nan nan
nan nan nan
nan nan nan
nan nan nan
nan nan nan
nan nan nan
nan nan nan
nan nan nan
nan nan nan
nan nan nan
nan nan nan
nan nan nan
nan nan nan
nan nan nan
nan nan nan
nan nan nan
nan nan nan
nan nan nan
nan nan nan
nan nan nan
nan nan nan
nan nan nan
nan nan nan
nan nan nan
nan nan nan
nan nan nan
nan nan nan
nan nan nan
nan nan nan
nan nan nan
nan nan nan
nan nan nan
nan nan nan
-0.23005542 -0.049377691 -0.61400002
-0.22836451 -0.049297273 -0.61300004
-0.22667791 -0.049216855 -0.61200005
-0.22610033 -0.049377691 -0.61400002
-0.22441585 -0.049297273 -0.61300004
-0.22273569 -0.049216855 -0.61200005
-0.22105978 -0.04913643 -0.611
-0.21902858 -0.048975594 -0.60900003
-0.21736343 -0.048895173 -0.60800004
-0.21605796 -0.048895173 -0.60800004
-0.21439926 -0.048814755 -0.60700005
-0.21344697 -0.048895173 -0.60800004
-0.21249041 -0.048975594 -0.60900003
-0.21048924 -0.048814755 -0.60700005
-0.20987514 -0.048975594 -0.60900003
-0.20890997 -0.049056012 -0.61000001
-0.20794052 -0.04913643 -0.611
-0.20662859 -0.04913643 -0.611
-0.20565271 -0.049216855 -0.61200005
-0.20467253 -0.049297273 -0.61300004
-0.20368804 -0.049377691 -0.61400002
-0.20302887 -0.049538534 -0.61600006
-0.20203364 -0.049618952 -0.61700004
nan nan nan
nan nan nan
nan nan nan
nan nan nan
nan nan nan
-0.19314109 -0.049377691 -0.61400002
-0.19182271 -0.049377691 -0.61400002
-0.19050434 -0.049377691 -0.61400002
-0.18918596 -0.049377691 -0.61400002
-0.18756163 -0.049297273 -0.61300004
-0.18594158 -0.049216855 -0.61200005
-0.18462752 -0.049216855 -0.61200005
-0.18331344 -0.049216855 -0.61200005
-0.18199937 -0.049216855 -0.61200005
-0.1806853 -0.049216855 -0.61200005
-0.1796643 -0.049297273 -0.61300004
-0.17834808 -0.049297273 -0.61300004
-0.17703186 -0.049297273 -0.61300004
-0.17600228 -0.049377691 -0.61400002
-0.17496842 -0.049458109 -0.61500001
-0.17393026 -0.049538534 -0.61600006
-0.17288782 -0.049618952 -0.61700004
-0.17128493 -0.049538534 -0.61600006
-0.16996227 -0.049538534 -0.61600006
-0.1686396 -0.049538534 -0.61600006
-0.16731694 -0.049538534 -0.61600006
-0.16599427 -0.049538534 -0.61600006
-0.16467161 -0.049538534 -0.61600006
-0.16334896 -0.049538534 -0.61600006
-0.16202629 -0.049538534 -0.61600006
-0.16070363 -0.049538534 -0.61600006
-0.15912221 -0.049458109 -0.61500001
-0.15754512 -0.049377691 -0.61400002
-0.15622674 -0.049377691 -0.61400002
-0.15490837 -0.049377691 -0.61400002
-0.15333988 -0.049297273 -0.61300004
-0.15177564 -0.049216855 -0.61200005
-0.15046157 -0.049216855 -0.61200005
-0.1491475 -0.049216855 -0.61200005
-0.14807498 -0.049297273 -0.61300004
-0.14675875 -0.049297273 -0.61300004
-0.1456798 -0.049377691 -0.61400002
-0.14436142 -0.049377691 -0.61400002
-0.14304306 -0.049377691 -0.61400002
-0.14172469 -0.049377691 -0.61400002
-0.14086367 -0.049538534 -0.61600006
-0.139541 -0.049538534 -0.61600006
-0.13821834 -0.049538534 -0.61600006
-0.13734014 -0.04969937 -0.61800003
-0.13623327 -0.049779788 -0.61900002
-0.13512211 -0.049860209 -0.62
-0.13357505 -0.049779788 -0.61900002
-0.13203231 -0.04969937 -0.61800003
-0.13070536 -0.04969937 -0.61800003
-0.12916905 -0.049618952 -0.61700004
-0.12722263 -0.049377691 -0.61400002
-0.12590426 -0.049377691 -0.61400002
-0.12438298 -0.049297273 -0.61300004
-0.12326752 -0.049377691 -0.61400002
-0.12234639 -0.049538534 -0.61600006
-0.12141665 -0.04969937 -0.61800003
-0.12047832 -0.049860209 -0.62
-0.11933925 -0.049940631 -0.62100005
-0.11819588 -0.050021049 -0.62200004
-0.11704821 -0.05010147 -0.62300003
-0.11571052 -0.05010147 -0.62300003
-0.11437282 -0.05010147 -0.62300003
nan nan nan
nan nan nan
nan nan nan
-0.10849705 -0.049860209 -0.62
-0.10716581 -0.049860209 -0.62
-0.10566386 -0.049779788 -0.61900002
-0.10416619 -0.04969937 -0.61800003
-0.10267284 -0.049618952 -0.61700004
-0.10118376 -0.049538534 -0.61600006
-0.099698983 -0.049458109 -0.61500001
-0.098538436 -0.049538534 -0.61600006
-0.097057946 -0.049458109 -0.61500001
-0.095737435 -0.049458109 -0.61500001
-0.09472397 -0.049618952 -0.61700004
-0.093550533 -0.04969937 -0.61800003
-0.092223577 -0.04969937 -0.61800003
nan nan nan
nan nan nan
nan nan nan
nan nan nan
nan nan nan
nan nan nan
nan nan nan
-0.081872009 -0.049860209 -0.62
-0.080540761 -0.049860209 -0.62
-0.079209507 -0.049860209 -0.62
-0.077878252 -0.049860209 -0.62
-0.076547004 -0.049860209 -0.62
-0.075215749 -0.049860209 -0.62
-0.07376533 -0.049779788 -0.61900002
-0.072319202 -0.04969937 -0.61800003
-0.070992246 -0.04969937 -0.61800003
nan nan nan
-0.068227753 -0.049618952 -0.61700004
-0.067011371 -0.04969937 -0.61800003
-0.065790705 -0.049779788 -0.61900002
-0.064565733 -0.049860209 -0.62
-0.063336477 -0.049940631 -0.62100005
-0.062102918 -0.050021049 -0.62200004
-0.060767375 -0.050021049 -0.62200004
-0.059527375 -0.05010147 -0.62300003
-0.058189679 -0.05010147 -0.62300003
-0.056760732 -0.050021049 -0.62200004
-0.05533608 -0.049940631 -0.62100005
-0.053915717 -0.049860209 -0.62
-0.052499648 -0.049779788 -0.61900002
-0.051087879 -0.04969937 -0.61800003
-0.049760923 -0.04969937 -0.61800003
-0.048512336 -0.049779788 -0.61900002
-0.047183231 -0.049779788 -0.61900002
-0.045928199 -0.049860209 -0.62
-0.044596951 -0.049860209 -0.62
-0.043335482 -0.049940631 -0.62100005
-0.041934446 -0.049860209 -0.62
-0.040668681 -0.049940631 -0.62100005
-0.039335288 -0.049940631 -0.62100005
-0.038063079 -0.050021049 -0.62200004
-0.036727533 -0.050021049 -0.62200004
-0.035391986 -0.050021049 -0.62200004
-0.034111191 -0.05010147 -0.62300003
-0.032720894 -0.050021049 -0.62200004
-0.031385347 -0.050021049 -0.62200004
-0.030049801 -0.050021049 -0.62200004
-0.028668089 -0.049940631 -0.62100005
-0.02733469 -0.049940631 -0.62100005
-0.026001289 -0.049940631 -0.62100005
-0.024667891 -0.049940631 -0.62100005
-0.02333449 -0.049940631 -0.62100005
-0.022001091 -0.049940631 -0.62100005
-0.020634409 -0.049860209 -0.62
-0.019334294 -0.049940631 -0.62100005
-0.018000893 -0.049940631 -0.62100005
-0.016667495 -0.049940631 -0.62100005
-0.015358787 -0.050021049 -0.62200004
-0.014000695 -0.049940631 -0.62100005
-0.012687693 -0.050021049 -0.62200004
-0.011352147 -0.050021049 -0.62200004
-0.010016601 -0.050021049 -0.62200004
-0.0086810533 -0.050021049 -0.62200004
-0.0073455065 -0.050021049 -0.62200004
-0.0060099601 -0.050021049 -0.62200004
-0.0046744132 -0.050021049 -0.62200004
-0.0033388666 -0.050021049 -0.62200004
-0.00200332 -0.050021049 -0.62200004
-0.0006677733 -0.050021049 -0.62200004
0.0006677733 -0.050021049 -0.62200004
0.00200332 -0.050021049 -0.62200004
nan nan nan
0.0046819281 -0.05010147 -0.62300003
0.0060292841 -0.050181888 -0.62400001
0.0073573161 -0.05010147 -0.62300003
0.008708966 -0.050181888 -0.62400001
0.010048808 -0.050181888 -0.62400001
0.011370398 -0.05010147 -0.62300003
0.012708091 -0.05010147 -0.62300003
0.014023241 -0.050021049 -0.62200004
0.015383479 -0.05010147 -0.62300003
nan nan nan
nan nan nan
0.01939656 -0.05010147 -0.62300003
0.020700973 -0.050021049 -0.62200004
0.022036521 -0.050021049 -0.62200004
0.023372065 -0.050021049 -0.62200004
0.024707614 -0.050021049 -0.62200004
0.026043158 -0.050021049 -0.62200004
0.027378706 -0.050021049 -0.62200004
0.028714253 -0.050021049 -0.62200004
0.030049801 -0.050021049 -0.62200004
0.031385347 -0.050021049 -0.62200004
0.032720894 -0.050021049 -0.62200004
0.03405644 -0.050021049 -0.62200004
0.035391986 -0.050021049 -0.62200004
0.036727533 -0.050021049 -0.62200004
0.038063079 -0.050021049 -0.62200004
0.039398629 -0.050021049 -0.62200004
0.040734172 -0.050021049 -0.62200004
0.042069718 -0.050021049 -0.62200004
0.043405265 -0.050021049 -0.62200004
0.044740815 -0.050021049 -0.62200004
0.046076357 -0.050021049 -0.62200004
0.047411904 -0.050021049 -0.62200004
0.048747454 -0.050021049 -0.62200004
0.050083 -0.050021049 -0.62200004
nan nan nan
nan nan nan
nan nan nan
nan nan nan
nan nan nan
0.058189679 -0.05010147 -0.62300003
0.059622921 -0.050181888 -0.62400001
0.060865071 -0.05010147 -0.62300003
0.062202759 -0.05010147 -0.62300003
0.063438468 -0.050021049 -0.62200004
0.064669877 -0.049940631 -0.62100005
0.066003278 -0.049940631 -0.62100005
0.067228235 -0.049860209 -0.62
0.06855949 -0.049860209 -0.62
0.069890745 -0.049860209 -0.62
0.071221992 -0.049860209 -0.62
0.07255324 -0.049860209 -0.62
0.073884495 -0.049860209 -0.62
0.075215749 -0.049860209 -0.62
nan nan nan
0.078003868 -0.049940631 -0.62100005
0.079209507 -0.049860209 -0.62
0.08067067 -0.049940631 -0.62100005
0.08200407 -0.049940631 -0.62100005
0.083337471 -0.049940631 -0.62100005
0.084670871 -0.049940631 -0.62100005
0.086004265 -0.049940631 -0.62100005
0.087337665 -0.049940631 -0.62100005
0.088813849 -0.050021049 -0.62200004
0.090004466 -0.049940631 -0.62100005
0.091337867 -0.049940631 -0.62100005
0.092671268 -0.049940631 -0.62100005
0.094004668 -0.049940631 -0.62100005
0.095338069 -0.049940631 -0.62100005
0.09667147 -0.049940631 -0.62100005
0.097847037 -0.049860209 -0.62
0.099178284 -0.049860209 -0.62
0.10067166 -0.049940631 -0.62100005
0.10200506 -0.049940631 -0.62100005
0.10333847 -0.049940631 -0.62100005
0.10467187 -0.049940631 -0.62100005
0.10600527 -0.049940631 -0.62100005
0.10733867 -0.049940631 -0.62100005
0.10867205 -0.049940631 -0.62100005
0.10982831 -0.049860209 -0.62
0.11115956 -0.049860209 -0.62
0.11267225 -0.049940631 -0.62100005
0.11400566 -0.049940631 -0.62100005
0.11552478 -0.050021049 -0.62200004
0.11686034 -0.050021049 -0.62200004
0.1183859 -0.05010147 -0.62300003
0.11972359 -0.05010147 -0.62300003
0.12106129 -0.05010147 -0.62300003
0.12239898 -0.05010147 -0.62300003
0.12373668 -0.05010147 -0.62300003
0.12507437 -0.05010147 -0.62300003
0.12620915 -0.050021049 -0.62200004
0.12733966 -0.049940631 -0.62100005
0.12846585 -0.049860209 -0.62
0.12979709 -0.049860209 -0.62
0.13133985 -0.049940631 -0.62100005
0.1324596 -0.049860209 -0.62
0.13357505 -0.049779788 -0.61900002
0.13468623 -0.04969937 -0.61800003
0.13623327 -0.049779788 -0.61900002
0.13756238 -0.049779788 -0.61900002
0.13889149 -0.049779788 -0.61900002
0.13999406 -0.04969937 -0.61800003
0.14154969 -0.049779788 -0.61900002
0.1431096 -0.049860209 -0.62
0.14444086 -0.049860209 -0.62
0.14600724 -0.049940631 -0.62100005
0.14757791 -0.050021049 -0.62200004
0.14915286 -0.05010147 -0.62300003
0.15049055 -0.05010147 -0.62300003
0.15134084 -0.049940631 -0.62100005
0.15267424 -0.049940631 -0.62100005
0.15400764 -0.049940631 -0.62100005
0.15534104 -0.049940631 -0.62100005
0.15667444 -0.049940631 -0.62100005
0.15775338 -0.049860209 -0.62
0.15908465 -0.049860209 -0.62
0.16067463 -0.049940631 -0.62100005
0.16200805 -0.049940631 -0.62100005
nan nan nan
nan nan nan
0.16627556 -0.050021049 -0.62200004
0.16788056 -0.05010147 -0.62300003
0.16921827 -0.05010147 -0.62300003
0.17082971 -0.050181888 -0.62400001
0.17216957 -0.050181888 -0.62400001
0.1735094 -0.050181888 -0.62400001
0.17484926 -0.050181888 -0.62400001
0.17618908 -0.050181888 -0.62400001
0.17724444 -0.05010147 -0.62300003
0.17829548 -0.050021049 -0.62200004
0.17934223 -0.049940631 -0.62100005
0.18067564 -0.049940631 -0.62100005
0.18200903 -0.049940631 -0.62100005
0.18334244 -0.049940631 -0.62100005
0.18467583 -0.049940631 -0.62100005
0.18600924 -0.049940631 -0.62100005
0.1876443 -0.050021049 -0.62200004
0.18867601 -0.049940631 -0.62100005
0.19000943 -0.049940631 -0.62100005
0.19103469 -0.049860209 -0.62
0.19236594 -0.049860209 -0.62
0.19400962 -0.049940631 -0.62100005
0.19502845 -0.049860209 -0.62
0.19667642 -0.049940631 -0.62100005
0.19800983 -0.049940631 -0.62100005
0.19934322 -0.049940631 -0.62100005
0.20067662 -0.049940631 -0.62100005
0.20233531 -0.050021049 -0.62200004
0.20367086 -0.050021049 -0.62200004
0.20500642 -0.050021049 -0.62200004
0.20601022 -0.049940631 -0.62100005
0.20734362 -0.049940631 -0.62100005
0.20867702 -0.049940631 -0.62100005
0.21001041 -0.049940631 -0.62100005
0.21134382 -0.049940631 -0.62100005
0.21267721 -0.049940631 -0.62100005
0.21401063 -0.049940631 -0.62100005
0.21534401 -0.049940631 -0.62100005
0.21702634 -0.050021049 -0.62200004
0.21836187 -0.050021049 -0.62200004
0.21969743 -0.050021049 -0.62200004
0.22103298 -0.050021049 -0.62200004
0.22201101 -0.049940631 -0.62100005
0.22334442 -0.049940631 -0.62100005
0.22467782 -0.049940631 -0.62100005
0.22601122 -0.049940631 -0.62100005
0.22734462 -0.049940631 -0.62100005
0.22904626 -0.050021049 -0.62200004
0.2303818 -0.050021049 -0.62200004
0.23208986 -0.05010147 -0.62300003
0.23342757 -0.05010147 -0.62300003
0.23476526 -0.05010147 -0.62300003
0.23610295 -0.05010147 -0.62300003
0.23744065 -0.05010147 -0.62300003
0.23839508 -0.050021049 -0.62200004
0.23973063 -0.050021049 -0.62200004
nan nan nan
nan nan nan
nan nan nan
nan nan nan
nan nan nan
nan nan nan
nan nan nan
0.2500124 -0.049940631 -0.62100005
0.25175053 -0.050021049 -0.62200004
0.25308609 -0.050021049 -0.62200004
0.25401261 -0.049940631 -0.62100005
0.255346 -0.049940631 -0.62100005
0.25626606 -0.049860209 -0.62
0.2575973 -0.049860209 -0.62
0.25892857 -0.049860209 -0.62
0.26025981 -0.049860209 -0.62
0.26159108 -0.049860209 -0.62
0.26292232 -0.049860209 -0.62
0.26425356 -0.049860209 -0.62
0.26558483 -0.049860209 -0.62
0.26691607 -0.049860209 -0.62
0.26824734 -0.049860209 -0.62
0.26957858 -0.049860209 -0.62
0.27090985 -0.049860209 -0.62
0.27224109 -0.049860209 -0.62
0.27313107 -0.049779788 -0.61900002
0.2744602 -0.049779788 -0.61900002
0.27668038 -0.049940631 -0.62100005
0.2780138 -0.049940631 -0.62100005
nan nan nan
nan nan nan
0.28246811 -0.050021049 -0.62200004
0.28425995 -0.05010147 -0.62300003
0.28559762 -0.05010147 -0.62300003
0.28647473 -0.050021049 -0.62200004
0.2878103 -0.050021049 -0.62200004
0.28914586 -0.050021049 -0.62200004
0.29001439 -0.049940631 -0.62100005
0.29134777 -0.049940631 -0.62100005
0.29268119 -0.049940631 -0.62100005
0.29401457 -0.049940631 -0.62100005
0.29534799 -0.049940631 -0.62100005
0.29668137 -0.049940631 -0.62100005
0.29801479 -0.049940631 -0.62100005
0.29886612 -0.049860209 -0.62
0.30068159 -0.049940631 -0.62100005
0.30152863 -0.049860209 -0.62
0.30285987 -0.049860209 -0.62
0.30419114 -0.049860209 -0.62
0.30552238 -0.049860209 -0.62
0.3063587 -0.049779788 -0.61900002
0.30818489 -0.049860209 -0.62
0.30951613 -0.049860209 -0.62
0.31084737 -0.049860209 -0.62
