# .PCD v0.7 - Point Cloud Data file format
VERSION 0.7
FIELDS x y z
SIZE 4 4 4
TYPE F F F
COUNT 1 1 1
WIDTH 1088
HEIGHT 1
VIEWPOINT 0 0 0 1 0 0 0
POINTS 1088
DATA ascii
0 0 0
-0.19075146 0.026952032 0.50819999
-0.18786135 0.027596664 0.50889993
-0.19077024 0.033027839 0.50825
-0.18567479 0.034998298 0.50808829
-0.17998831 0.039163377 0.509
-0.18101279 0.041213486 0.50700003
-0.17677411 0.044746794 0.5080952
-0.17524312 0.054085858 0.50807691
-0.17506747 0.064934887 0.50808001
-0.17450629 0.074439891 0.50790328
-0.17646703 0.084028773 0.50813633
-0.19315429 0.019574407 0.51759994
-0.18992625 0.019589532 0.51800001
-0.19195448 0.021846373 0.5141539
-0.18472965 0.024967872 0.51421428
-0.19068812 0.030741682 0.51000005
-0.18313938 0.033253774 0.51423532
-0.17521712 0.037542664 0.51631373
-0.16972546 0.037618563 0.51820004
-0.17287029 0.044392079 0.51399994
-0.16813979 0.046806477 0.51679313
-0.17214169 0.05468218 0.51152384
-0.16767253 0.055146828 0.51454347
-0.17208767 0.064704284 0.51168889
-0.16864254 0.064788781 0.51570004
-0.17208304 0.075703062 0.51361537
-0.16926494 0.072226599 0.51680005
-0.17380442 0.082600832 0.51280004
-0.16925967 0.082720079 0.51850003
-0.19342737 0.016360424 0.52291179
-0.18578307 0.01758921 0.52493757
-0.17743222 0.019191964 0.52700001
-0.18152249 0.023897428 0.52168006
-0.17500624 0.025360458 0.52355278
-0.16866489 0.026760856 0.52622229
-0.18048728 0.033228215 0.52000004
-0.17482376 0.032482423 0.52094746
-0.16648813 0.034873299 0.52464992
-0.16509815 0.044859409 0.52441543
-0.16429105 0.054890584 0.52663791
-0.15936448 0.053317305 0.52866668
-0.16608983 0.064476609 0.52494341
-0.17064144 0.078401558 0.52100003
-0.16712634 0.075129777 0.52476472
-0.17061038 0.080945879 0.52160001
-0.16657737 0.080925435 0.52293336
-0.18591046 0.0095468517 0.53900003
-0.20104659 0.012517723 0.53666669
-0.19389622 0.012123913 0.53657144
-0.18489338 0.013491008 0.53399998
-0.17512812 0.017488822 0.53371429
-0.16950874 0.019212153 0.53900003
-0.17087559 0.020690521 0.53187501
-0.16561908 0.025497722 0.53440994
-0.16211656 0.034800313 0.53110009
-0.15823363 0.035301089 0.53374183
-0.16125126 0.044111986 0.5304091
-0.15814878 0.043807834 0.536129
-0.16093366 0.058192194 0.53120005
-0.15794465 0.057034686 0.5351578
-0.16212212 0.06559772 0.5330801
-0.1564194 0.065934315 0.53659534
-0.16330782 0.073419787 0.53064513
-0.15819857 0.072128259 0.53183335
-0.2015214 0.0099310167 0.54400003
-0.18494044 0.0089983176 0.5434444
-0.20188481 0.011052149 0.54100001
-0.19725871 0.011609133 0.54209095
-0.18218662 0.012184503 0.54323077
-0.17512929 0.015813889 0.54317647
-0.16832905 0.018847857 0.542
-0.16349778 0.025491182 0.54279995
-0.15955463 0.02986653 0.54100001
-0.16042799 0.030847445 0.54800004
-0.15739872 0.036407106 0.54475009
-0.15484996 0.045558836 0.54286844
-0.15438186 0.054860763 0.54409307
-0.16043341 0.063849352 0.54000002
-0.15589783 0.062422268 0.54035002
-0.18309149 0.0075936913 0.55479991
-0.17893153 0.008579459 0.55866671
-0.18134843 0.011479842 0.55136371
-0.17720281 0.012223214 0.55482608
-0.16437949 0.026119705 0.55478954
-0.16044478 0.030713027 0.55633336
-0.15450419 0.035013713 0.55456257
-0.1469586 0.037836868 0.55780959
-0.15215769 0.044718295 0.55395234
-0.14620328 0.043767903 0.55774456
-0.15183109 0.05221872 0.55433333
-0.14906798 0.050300606 0.55900002
-0.18042748 -0.0027222352 0.56900001
-0.17733558 -0.0017328281 0.56900007
-0.1837185 0.0040315767 0.56652004
-0.17510737 0.0052283271 0.56633341
-0.16757101 0.0079016369 0.56818748
-0.17194587 0.014252299 0.56181824
-0.16640012 0.014619559 0.56692868
-0.15605563 0.017158624 0.5671429
-0.17002697 0.021177873 0.56
-0.16421297 0.023680091 0.56432623
-0.15494743 0.025165971 0.56630397
-0.14525642 0.026126936 0.56807148
-0.13846092 0.028097689 0.5686667
-0.15179293 0.031122083 0.56381816
-0.14411855 0.033931535 0.5644688
-0.13673264 0.03555502 0.56751031
-0.1421205 0.046499375 0.5624243
-0.13751799 0.044628285 0.56679416
-0.11634662 0.046221547 0.56710005
-0.15104719 0.053668614 0.56033331
-0.14538492 0.052190524 0.56233335
-0.13829893 0.051446635 0.56716669
-0.12143408 0.051818818 0.56900001
-0.11915863 0.051020473 0.56700003
-0.17163193 -0.031261604 0.57875001
-0.16837981 -0.031442355 0.57860005
-0.19355746 -0.023655891 0.57700008
-0.18892379 -0.022998359 0.57764292
-0.17396666 -0.024930747 0.57779163
-0.16769551 -0.025292464 0.57741374
-0.19359079 -0.015138865 0.5733999
-0.18683296 -0.014216908 0.57708889
-0.17385064 -0.015057088 0.57871753
-0.16887742 -0.016046982 0.57884622
-0.19328764 -0.0054928628 0.5737837
-0.18510282 -0.005680298 0.5718773
-0.17464748 -0.0057013109 0.57498419
-0.16524312 -0.0032880029 0.57539022
-0.15909201 -0.0027383387 0.57700008
-0.19215065 0.001587007 0.57475007
-0.18634227 0.0017362054 0.57120007
-0.17146116 0.0013203034 0.57016677
-0.16457824 0.003929025 0.57200003
-0.15866828 0.0034339759 0.57570601
-0.14910941 0.001757461 0.57800001
-0.16264772 0.014832158 0.5700953
-0.15519801 0.013405603 0.57466668
-0.16364731 0.020564904 0.57000005
-0.14387007 0.023933703 0.57475001
-0.1344375 0.027378907 0.57690632
-0.12923148 0.02881813 0.57900006
-0.13217877 0.033427607 0.57224131
-0.1254136 0.035949003 0.57417226
-0.11909493 0.038234811 0.57866669
-0.13358274 0.045496766 0.57412809
-0.12526931 0.044378765 0.57163316
-0.11894184 0.043970767 0.57157892
-0.13392302 0.052117918 0.57752943
-0.12572196 0.05131954 0.57276481
-0.17310841 -0.064034864 0.58709097
-0.16828528 -0.062939569 0.58853334
-0.17345731 -0.054897387 0.58597922
-0.16616556 -0.055334494 0.5877347
-0.1903484 -0.040791113 0.58766669
-0.18546532 -0.04264123 0.5886364
-0.173677 -0.044630077 0.58272737
-0.16797526 -0.044929333 0.58606058
-0.19129747 -0.03494617 0.58472222
-0.18512693 -0.033992551 0.58555007
-0.17459963 -0.035480503 0.58272737
-0.16773205 -0.035352312 0.58396423
-0.20105816 -0.021952668 0.58200002
-0.19544975 -0.027417615 0.58130002
-0.18490916 -0.025783829 0.58096361
-0.17885649 -0.026605755 0.58008331
-0.16569796 -0.026318705 0.58200002
-0.20168713 -0.018969405 0.58180004
-0.18315041 -0.016929116 0.580625
-0.17813587 -0.015110009 0.57999998
-0.1677949 -0.014482433 0.5831176
-0.19660845 -0.0007590999 0.58100003
-0.16675197 -0.0085655833 0.58211112
-0.15375163 -0.0037432292 0.58630002
-0.1493879 -0.00076301955 0.58400005
-0.15522179 0.001959027 0.58099997
-0.14223155 0.0066209529 0.5862667
-0.13809188 0.0087385429 0.58755559
-0.15298451 0.015964435 0.58114296
-0.14257492 0.015552237 0.5830968
-0.136188 0.015317888 0.58546013
-0.12314196 0.019714126 0.58900005
-0.11930127 0.019714126 0.58900005
-0.1501413 0.020744847 0.58200002
-0.14259852 0.022365777 0.5825333
-0.1347267 0.022574995 0.58184844
-0.12519208 0.025202798 0.58431262
-0.11696216 0.026247717 0.58582932
-0.12306012 0.032135502 0.58068752
-0.11574766 0.034662955 0.58434546
-0.11721151 0.04132884 0.5869
-0.13489123 0.053758353 0.58060008
-0.23063283 0.081498586 0.58833337
-0.22743236 0.085536726 0.58354169
-0.22788756 0.095609523 0.58453572
-0.22717631 0.10038326 0.58166671
-0.17522508 -0.092939414 0.59396774
-0.16585873 -0.09269321 0.59382153
-0.18198615 -0.08191517 0.59724998
-0.17480661 -0.085068524 0.59335858
-0.16552608 -0.08489693 0.59470314
-0.15973474 -0.083457425 0.59900004
-0.18095729 -0.077857666 0.59600002
-0.17428578 -0.074955851 0.59194225
-0.16587114 -0.075412802 0.59399992
-0.1751516 -0.068014972 0.59040004
-0.1644256 -0.065316714 0.59335434
-0.15912503 -0.063823514 0.59627277
-0.16166465 -0.054080389 0.59269232
-0.15833002 -0.055351652 0.59399998
-0.18472776 -0.042145863 0.59025007
-0.1635779 -0.045034632 0.59445101
-0.15839496 -0.043434352 0.59640008
-0.10532457 -0.046306882 0.59842861
-0.18513159 -0.038043816 0.59011775
-0.16361107 -0.035094302 0.59339619
-0.1583879 -0.03575433 0.59600002
-0.1631344 -0.024456516 0.59265298
-0.15966164 -0.026153866 0.59711111
-0.16421753 -0.014859499 0.59411317
-0.15525451 -0.014533873 0.59637517
-0.14931902 -0.011198342 0.59900004
-0.16257659 -0.0097931176 0.59275007
-0.15443763 -0.0085349306 0.59086961
-0.14562911 -0.0048322226 0.59321046
-0.13722515 -0.0031234387 0.59565383
-0.1423839 0.0019108456 0.59036374
-0.13549228 0.0049599949 0.59372216
-0.12935555 0.0087651303 0.59900004
0.020990275 0.0056602811 0.59200001
-0.13175996 0.014598669 0.59154171
-0.12585613 0.015732303 0.5939796
-0.11771215 0.017397067 0.59474999
-0.11407857 0.025430873 0.59417647
-0.10810328 0.028882723 0.59860003
-0.11131698 0.035584997 0.59128577
-0.10823442 0.033646036 0.59559262
-0.11418754 0.041463993 0.59142864
-0.23287284 0.077841997 0.59050006
-0.23171413 0.080020562 0.59000003
-0.17086563 -0.10131373 0.6085
-0.17082168 -0.099580303 0.60600001
-0.16503121 -0.094695099 0.60236365
-0.16115496 -0.086598322 0.60089999
-0.15865873 -0.083924405 0.60233331
-0.16162096 -0.074657701 0.60256004
-0.15954396 -0.078392208 0.60720003
-0.16260968 -0.069251232 0.59999996
-0.10670926 -0.050425112 0.60100001
-0.12004299 -0.041168571 0.60900003
-0.11394189 -0.043027822 0.6044445
-0.10855713 -0.045107864 0.60136366
-0.15795097 -0.033848677 0.60321432
-0.12004299 -0.037859317 0.60900003
-0.11757497 -0.038031839 0.60650003
-0.16000141 -0.02360636 0.60000002
-0.15575743 -0.024570467 0.60235989
-0.14929461 -0.021425407 0.60100001
-0.15208754 -0.017454734 0.60022217
-0.14529666 -0.01551763 0.60317856
-0.13844708 -0.013971423 0.6061334
-0.14411619 -0.0089407172 0.600375
-0.13487653 -0.0056516565 0.60231256
-0.11871929 -0.0034430856 0.60900003
-0.080331959 -0.00079568301 0.60900003
-0.079008251 -0.0021193842 0.60900003
-0.13146661 0.0031317503 0.60138887
-0.12462126 0.0052133887 0.60370982
-0.11553373 0.0080481889 0.60720003
-0.10858735 0.0086184684 0.60628569
-0.12315491 0.011771658 0.60084611
-0.11409304 0.01459944 0.60305995
-0.10519021 0.015437246 0.60627276
-0.099626616 0.017156404 0.60720003
-0.1129797 0.02305809 0.60235721
-0.10465232 0.024518196 0.60215247
-0.098481558 0.024470674 0.60545003
-0.11044412 0.039644387 0.60000002
-0.10451659 0.034493908 0.60186213
-0.099200405 0.030667992 0.60300004
-0.23009479 0.04267519 0.60600001
-0.11142296 0.041312512 0.60533339
-0.1629314 -0.093541555 0.61509097
-0.16187122 -0.089924477 0.61200005
-0.15236877 -0.042812362 0.61572224
-0.11778112 -0.044623889 0.611
-0.15411407 -0.035143368 0.61410367
-0.14684257 -0.032464471 0.61691308
-0.12227927 -0.037379343 0.61357152
-0.11969399 -0.035501011 0.61400002
-0.1523249 -0.028275447 0.61166668
-0.14422102 -0.02550347 0.61409104
-0.13598004 -0.023285139 0.61487877
-0.12757258 -0.021895133 0.61690915
-0.13403076 -0.015153197 0.61245477
-0.12669554 -0.014752618 0.61609751
-0.11345357 -0.011019226 0.6131112
-0.10981283 -0.010094634 0.611
-0.13202943 -0.0061902124 0.61138898
-0.12522072 -0.004595222 0.6120944
-0.11455127 -0.0047452608 0.61242604
-0.10912959 -0.0045532314 0.61690009
-0.080595769 -0.0021263445 0.611
-0.12090304 0.00052888517 0.61000001
-0.11504541 0.0036191456 0.6115815
-0.10622782 0.0061773621 0.61465722
-0.095828272 0.0092534497 0.6171667
0.02043575 0.008539767 0.61400002
-0.10370413 0.011737332 0.61066669
-0.09572842 0.01528639 0.6134668
-0.093937516 0.025043655 0.61195928
-0.089627028 0.023383902 0.61833334
-0.10066634 0.033340793 0.61600006
-0.097527727 0.031897184 0.61544442
-0.11479153 0.044375274 0.61493331
-0.055997122 0.2396367 0.61800003
-0.060124043 0.24136987 0.61900002
-0.054971054 0.24076761 0.61822224
-0.14675909 -0.051243741 0.62700003
-0.151288 -0.046518307 0.62210006
-0.14744002 -0.044146765 0.62587875
-0.1263254 -0.04305809 0.62699997
-0.14421123 -0.036087357 0.62284207
-0.13615368 -0.032820057 0.62592006
-0.12652972 -0.03396146 0.6258148
-0.13412069 -0.027455918 0.62276006
-0.12507771 -0.025508931 0.6252144
-0.11969317 -0.021979079 0.62800002
-0.12194653 -0.015189414 0.62210006
-0.11852399 -0.015634071 0.62424999
-0.1034777 -0.010392021 0.62900001
-0.12153745 -0.0088957166 0.62
-0.10489196 -0.0047890749 0.62526006
-0.099376187 -0.0015054001 0.62900001
-0.087071627 -0.0035561589 0.62900001
-0.10315673 0.0033350952 0.62309682
-0.096672222 0.0053256038 0.6257391
-0.084269293 0.0086718965 0.62350005
0.020668732 0.009986911 0.62100005
-0.091394328 0.015251935 0.62237501
-0.087654479 0.014265761 0.626423
0.024972295 0.016407127 0.62742102
-0.090532735 0.026579361 0.62225002
-0.087992109 0.024883606 0.62540907
0.028164506 0.024074603 0.62672734
0.030262714 0.022241898 0.62400001
-0.10263449 0.038144805 0.62742853
-0.095131509 0.0338808 0.62448007
-0.089108326 0.031521384 0.62650007
0.028439002 0.0319741 0.6286667
-0.1168208 0.047703918 0.62
-0.10740818 0.04012946 0.62800002
-0.083035119 0.22726087 0.62894738
-0.077843212 0.22647062 0.62900001
-0.062149804 0.22926362 0.6286
-0.059633225 0.22986431 0.62800002
-0.0023069365 0.22886316 0.62900001
0.0061663538 0.22906339 0.62880003
0.012029219 0.22986431 0.62800002
-0.082308561 0.23394515 0.62812001
-0.0750788 0.23551884 0.62504905
-0.065104917 0.23527831 0.62480301
-0.05519535 0.23516797 0.62460595
-0.045172121 0.2368971 0.6260981
-0.034945633 0.23693843 0.6263541
-0.02506024 0.23628213 0.62533939
-0.01488439 0.23592332 0.62484872
-0.0050192615 0.23466644 0.62627006
0.005129592 0.23502578 0.62701386
0.015337299 0.23524164 0.62660342
0.024887711 0.23673606 0.62604648
0.035105195 0.23558512 0.62611681
0.044958014 0.23515652 0.62638181
0.05247426 0.23579085 0.6275264
-0.081213735 0.24137814 0.62600005
-0.075321607 0.24155881 0.62221432
-0.065308847 0.241248 0.62053341
-0.051461704 0.24041221 0.62
-0.044369794 0.24130562 0.62180966
-0.035193037 0.24141334 0.62176466
-0.025235219 0.2415857 0.62128586
-0.015101588 0.24149916 0.6210627
-0.0049874685 0.24129754 0.62228572
0.0051573222 0.24134745 0.62241662
0.015295873 0.24120447 0.62204772
0.024830662 0.24129292 0.62210011
0.034947429 0.24152665 0.62287509
0.04526747 0.24199875 0.62509525
0.051012788 0.24116771 0.62900001
-0.14341709 -0.051549833 0.63592309
-0.13783334 -0.05205423 0.6384545
-0.14309981 -0.045555178 0.63340002
-0.13554533 -0.044779021 0.63664436
-0.12729873 -0.047463987 0.63722223
-0.14061457 -0.039164811 0.63000005
-0.1357256 -0.036469962 0.63377422
-0.1220331 -0.033003449 0.63564295
-0.11674982 -0.031369496 0.63857144
-0.12116463 -0.027698509 0.63245457
-0.11665154 -0.02489559 0.63637203
-0.11704042 -0.01828045 0.63587505
-0.10111175 -0.012317097 0.63209093
-0.095788859 -0.013108817 0.63486671
-0.089009777 -0.010540715 0.63800001
-0.1010103 -0.0076786918 0.63066673
-0.09509588 -0.0050881146 0.63355559
-0.087807447 -0.0064423764 0.63433343
-0.095424362 0.0021291128 0.63138461
-0.082076639 0.0081796581 0.63800001
0.026522165 0.0082587637 0.63657147
-0.083693616 0.015649328 0.63483328
-0.077705823 0.018593986 0.63846153
0.018944869 0.017689729 0.63570005
0.025369955 0.014334541 0.63438886
0.032094445 0.01393117 0.63700002
-0.083725154 0.023238353 0.63368422
-0.07803911 0.021387652 0.63900006
0.017217945 0.025691157 0.63715142
0.02402137 0.025564278 0.63447213
-0.10578066 0.038233563 0.63050008
-0.096795492 0.037518568 0.63000005
0.018046699 0.033416677 0.63782364
0.024696378 0.035313345 0.63272089
-0.10534492 0.04038506 0.63200003
0.026658278 0.042654276 0.63509089
-0.09390638 0.21743998 0.63786966
-0.086741954 0.21710779 0.6381923
-0.063450828 0.21817248 0.63816679
-0.05488009 0.21803814 0.63800007
-0.044628151 0.21830399 0.639
-0.036243413 0.2183664 0.63847625
0.0076063797 0.21872932 0.63866669
0.012618985 0.21880654 0.63866663
0.049007609 0.21913493 0.63850003
0.052185882 0.2190603 0.63857144
-0.093661703 0.22462839 0.63491106
-0.085255533 0.22316737 0.63325542
-0.07485719 0.22472996 0.63345021
-0.065000482 0.22482687 0.63377273
-0.054944046 0.22524093 0.63586438
-0.045199092 0.22511259 0.63453329
-0.035256106 0.22519663 0.63452315
-0.025159784 0.22530612 0.63572294
-0.014629238 0.22538206 0.63567799
-0.0051079202 0.2248708 0.63458079
0.0045263395 0.22452749 0.63444614
0.015004828 0.22503601 0.63490665
0.025037095 0.22506979 0.63569349
0.035096366 0.22608776 0.63523215
0.0448975 0.22539167 0.63500017
0.054741137 0.22504877 0.63601667
0.063086607 0.22625799 0.63808697
-0.092086673 0.23340206 0.63340002
-0.087003812 0.23550992 0.63215798
-0.073998742 0.23113418 0.63022226
-0.069408566 0.23059638 0.63000005
-0.053133491 0.23084758 0.63184613
-0.044980921 0.23197058 0.63020009
-0.034857035 0.23211113 0.63078958
-0.024823122 0.23146948 0.6317392
-0.015850227 0.2310714 0.63157141
0.019152856 0.23117483 0.63033336
0.02547797 0.2321724 0.63176006
0.033605713 0.2310257 0.63080007
0.045505792 0.23095186 0.63055563
0.056338411 0.23338376 0.63276476
0.062277656 0.23131138 0.63700008
-0.084739529 0.24094427 0.63200003
0.053069551 0.24293204 0.6325714
-0.13639145 -0.06009499 0.64900005
-0.086884826 -0.067044735 0.648
-0.14149447 -0.055588406 0.64175004
-0.13389553 -0.055187967 0.64245719
-0.12642466 -0.054055568 0.64417857
-0.13287713 -0.049060356 0.64000005
-0.12824018 -0.04952405 0.64000005
-0.11478261 -0.041420925 0.64649999
-0.10958922 -0.040345974 0.64900005
-0.12162199 -0.036957372 0.64400005
-0.11455327 -0.035026096 0.64123696
-0.10652302 -0.034584127 0.64284998
-0.1121051 -0.025393009 0.6444118
-0.10958922 -0.02906082 0.64900005
-0.091631733 -0.020796154 0.64425004
-0.089701772 -0.021268371 0.648
-0.092868492 -0.016452663 0.64611119
-0.087895252 -0.012328784 0.64683342
-0.085156776 -0.0080740945 0.6438334
-0.080247857 0.008205846 0.64000005
-0.075716786 0.0078381849 0.64413339
0.031394333 0.0085338904 0.64733332
-0.080479704 0.013306477 0.64000005
-0.0742606 0.013939871 0.64378273
0.016252665 0.017771775 0.64216667
0.037060987 0.012801896 0.64614284
0.045530148 0.01526172 0.64770597
0.050908461 0.015980676 0.64500004
-0.080456831 0.022872334 0.64166671
-0.076063223 0.021484658 0.64183336
0.013768649 0.022107529 0.64199996
0.049292143 0.020760337 0.64833337
0.050947927 0.020904236 0.64550006
0.016335014 0.036438577 0.64246166
0.020034464 0.039752092 0.64400005
0.048335325 0.033664878 0.64810002
0.020965477 0.041618455 0.64400005
0.026991367 0.069040015 0.64300001
0.02762503 0.070970468 0.6415
-0.114497 0.20787367 0.64883345
-0.10394429 0.20638412 0.64794111
-0.095410332 0.20670477 0.64734149
-0.08595679 0.20706587 0.64771062
-0.07502681 0.20775242 0.64761293
-0.066104129 0.20731406 0.64735305
-0.053421456 0.20867696 0.64870006
-0.043885108 0.20696501 0.64864004
-0.036585711 0.20758902 0.6485334
-0.024055805 0.20659405 0.64848274
-0.015773237 0.20727748 0.64862508
-0.0049520927 0.20782715 0.64723337
0.0048041265 0.20760226 0.64770001
0.013127924 0.20877691 0.64845461
0.025210993 0.20824938 0.64794111
0.035661854 0.20842811 0.64814997
0.045557257 0.20782003 0.64866674
0.055793826 0.2068806 0.64825004
0.064278238 0.20710714 0.6484583
0.074668989 0.20843969 0.64871436
0.080847695 0.20933798 0.64900005
-0.11360022 0.21352729 0.64773327
-0.1047896 0.21435919 0.64398098
-0.095805481 0.21328795 0.64197308
-0.084125429 0.21319464 0.64136589
-0.074948788 0.2148442 0.64228576
-0.065301172 0.21358429 0.64265943
-0.05496588 0.21317208 0.64383674
-0.045270473 0.21351092 0.64303708
-0.034430932 0.21340628 0.64262497
-0.024747098 0.21462157 0.64373004
-0.014958906 0.21467529 0.64388901
-0.0051435572 0.21473669 0.64196444
0.0043148273 0.21442363 0.64274091
0.015036554 0.21408607 0.64275008
0.025243618 0.21443292 0.64328796
0.035441943 0.21461071 0.64284998
0.045199517 0.21479651 0.64453226
0.055124063 0.21415658 0.64347434
0.064872526 0.21485104 0.64441293
0.074807823 0.21485686 0.64619315
0.082431406 0.21398687 0.64823818
-0.11091433 0.22115847 0.64850003
-0.10445783 0.22341564 0.64504766
-0.098919086 0.22514696 0.64020002
-0.080247857 0.22034582 0.64000005
-0.074683525 0.22065498 0.64000005
-0.023909047 0.22034584 0.64000005
-0.014867016 0.22034584 0.64000005
-0.006520526 0.22034582 0.64000005
0.019910026 0.22034582 0.64000005
0.027560977 0.22034582 0.64000005
0.034894638 0.22101435 0.64007694
0.042167336 0.22034581 0.64000005
0.058164775 0.22034582 0.64000005
0.065510161 0.22305126 0.64051855
0.072743289 0.22316495 0.64257693
0.067311816 0.23044288 0.64100003
-0.13333456 -0.062537603 0.65400004
-0.12505491 -0.063486993 0.65706074
-0.1190449 -0.062035479 0.65760005
-0.12327161 -0.057906151 0.65157139
-0.11709039 -0.057492211 0.65550005
-0.10856441 -0.051970765 0.65775007
-0.11192172 -0.04556809 0.65376925
-0.10711134 -0.043280624 0.65526092
-0.097858451 -0.040946916 0.65866667
-0.10203914 -0.038525403 0.65228575
-0.098397888 -0.038310152 0.65433335
-0.11112647 -0.022655416 0.65139997
-0.10859332 -0.027049189 0.65150005
-0.084360868 -0.022687161 0.65380013
-0.078875855 -0.022677824 0.65671432
-0.084256843 -0.015734395 0.65070438
-0.077309936 -0.014568008 0.65352184
-0.081995502 -0.0080740126 0.65170008
-0.078251846 -0.0084392065 0.65433341
-0.071822025 0.0068722097 0.65333343
-0.065862112 0.007865835 0.6568889
0.03359909 0.0078890901 0.65500003
-0.070235193 0.015638979 0.65033334
-0.065325789 0.014427238 0.65402269
-0.058994871 0.012216832 0.65633333
0.038123321 0.014551321 0.65242863
0.042650741 0.018135039 0.65042865
0.044939309 0.023908105 0.65318739
0.045291539 0.03409294 0.65126306
0.018212205 0.041790873 0.65400004
0.020817945 0.044162229 0.65400004
-0.034645505 0.18964545 0.65900004
-0.13163143 0.19654021 0.6581111
-0.12512879 0.19595446 0.65636724
-0.11497229 0.19505461 0.65555352
-0.10499563 0.19578756 0.654625
-0.094724007 0.19564515 0.6545319
-0.085005656 0.19586273 0.65455335
-0.075364731 0.19632016 0.65645659
-0.064940982 0.19624342 0.65586668
-0.055102635 0.19567287 0.65493774
-0.045034185 0.19663326 0.65468764
-0.034985512 0.19490688 0.65442592
-0.025363205 0.19535947 0.6556226
-0.015213423 0.19739762 0.65662861
-0.0052597634 0.1967027 0.6562857
0.0044702445 0.19668594 0.65772116
0.014914094 0.19729351 0.65750009
0.024721703 0.19703442 0.65473527
0.034811426 0.19692472 0.65673184
0.044433713 0.19816141 0.65751851
0.054560177 0.19795327 0.65683872
0.064725123 0.19839956 0.65716666
0.075526364 0.19805302 0.65795457
0.084047273 0.19676164 0.6574738
0.094071895 0.19817947 0.65670371
0.10395397 0.19708283 0.65833336
-0.13093254 0.20049414 0.65700001
-0.12380531 0.2037942 0.65203327
-0.1156045 0.20325403 0.65068418
-0.10663336 0.20252259 0.65033323
-0.094912097 0.20155238 0.65036356
-0.083950154 0.20227912 0.65060711
-0.075143605 0.20275137 0.6513871
-0.063893564 0.20317709 0.65187496
-0.054973297 0.20401302 0.65080434
-0.045812353 0.2031329 0.65015376
-0.034256846 0.20368816 0.65063423
-0.025956165 0.2023719 0.6506297
-0.014596914 0.20285028 0.65124995
-0.005434934 0.20283738 0.65133333
0.0046934555 0.20264065 0.65171885
0.014803285 0.20419964 0.65279996
0.024118625 0.20361887 0.65107316
0.034162018 0.20385002 0.65154773
0.04470218 0.20310572 0.65200025
0.054588571 0.20246805 0.65156662
0.066185914 0.2029586 0.65211767
0.075199328 0.20345527 0.65210629
0.085442416 0.20475848 0.65194839
0.093524829 0.20293026 0.65300006
-0.11540934 0.2153118 0.65000004
0.086241446 0.21176152 0.65066671
-0.10975808 0.22378872 0.65000004
-0.11401774 -0.082198188 0.66580003
-0.10847149 -0.085170232 0.66640007
-0.13239543 -0.070178621 0.6643334
-0.12317413 -0.07380826 0.6654737
-0.11534066 -0.073724918 0.66688585
-0.10765187 -0.071440272 0.66711116
-0.14013773 -0.062548093 0.66000003
-0.13286978 -0.06760405 0.66111118
-0.12426721 -0.068160772 0.66041172
-0.11505979 -0.065926149 0.66435146
-0.10830915 -0.068265975 0.66540003
-0.10408366 -0.053990722 0.66371429
-0.095741987 -0.053412385 0.66553581
-0.10394356 -0.046765942 0.66178787
-0.095859922 -0.046342663 0.66318178
-0.089700542 -0.048859876 0.66900003
-0.083634183 -0.03131659 0.66700006
-0.076715983 -0.03196663 0.66711116
-0.083453327 -0.028355667 0.66337508
-0.075434111 -0.025445705 0.66508341
-0.061979577 -0.026282834 0.66800004
-0.074506693 -0.018555546 0.6643334
-0.063554391 -0.0012314012 0.66549999
-0.058721948 -0.00086754275 0.66400003
-0.071972273 0.0036897762 0.66200006
-0.064198993 0.0032765009 0.66275769
-0.057653546 0.0050432305 0.66335011
0.036632732 0.0070886798 0.66575003
-0.062671863 0.017069597 0.66000003
0.037951484 0.019328212 0.66366673
0.0081463354 0.028958119 0.66399997
0.038152222 0.022044552 0.66400003
0.042387955 0.025276804 0.66080004
0.0076689678 0.03212196 0.66466665
0.042322252 0.039563231 0.66433334
0.015342027 0.044587906 0.6668182
0.021252183 0.048535939 0.66460001
0.021544553 0.053872868 0.66666669
0.023708612 0.064045683 0.66866666
0.028767314 0.084793419 0.66799998
0.031444829 0.085802771 0.66833335
0.029360287 0.095974348 0.66500002
0.031655937 0.092727184 0.66766667
-0.14713809 0.17943621 0.66900003
-0.13289477 0.17852139 0.66830003
-0.12463823 0.1775323 0.66809529
-0.11565305 0.17869537 0.667077
-0.10430992 0.17805834 0.66820008
-0.096119054 0.17742847 0.66834784
-0.085302688 0.17863251 0.66871434
-0.075726748 0.17874092 0.66866678
-0.064142302 0.17902367 0.66866678
-0.054758877 0.17784189 0.66847628
-0.044859383 0.17774712 0.66838098
-0.036610845 0.17936915 0.66874999
-0.015683549 0.17897315 0.66890007
-0.005177917 0.17915386 0.66862506
0.004816934 0.17943621 0.66900009
0.015526481 0.1790868 0.66837513
0.024114178 0.17875086 0.66890919
0.04262393 0.17943621 0.66900003
0.10733205 0.17943621 0.66900003
-0.15039778 0.18334138 0.66733336
-0.14453962 0.18447509 0.66576093
-0.13492829 0.1847865 0.66374558
-0.12508133 0.18476196 0.66384482
-0.1147591 0.18483993 0.66199976
-0.10490744 0.18458918 0.6640178
-0.094942227 0.18485466 0.66498226
-0.084663361 0.1847174 0.66408759
-0.07474941 0.18482667 0.66447377
-0.064721547 0.18490939 0.66550922
-0.054787222 0.18496455 0.66376257
-0.045051619 0.18475245 0.66461128
-0.035331536 0.18529347 0.66415787
-0.025322761 0.18527372 0.66519231
-0.015449161 0.1848738 0.66505343
-0.0052486598 0.18477322 0.66428083
0.0046627964 0.18505956 0.66381949
0.014912911 0.18494007 0.66528594
0.02505156 0.18506011 0.66571444
0.035100829 0.18571062 0.6658802
0.045354038 0.1852417 0.6663751
0.055232055 0.18507515 0.66520363
0.065190956 0.18594258 0.66595751
0.074814856 0.18615937 0.66648895
0.084997974 0.18699093 0.66586113
0.094842963 0.18542336 0.66632694
0.10466823 0.18507649 0.66644454
0.1141519 0.18424727 0.66563064
0.12096506 0.18279675 0.66800004
-0.14196502 0.19223981 0.66633338
-0.13526058 0.19334376 0.66185182
-0.12470412 0.19110733 0.66045469
-0.11009545 0.19079439 0.66050005
-0.10447315 0.19125471 0.66126668
-0.095585831 0.19111736 0.66068751
-0.085485175 0.19129178 0.66040003
-0.074563973 0.19123365 0.66070598
-0.065876544 0.19143653 0.66082346
-0.055516131 0.19128187 0.6602
-0.045295618 0.19152696 0.66080004
-0.03926089 0.19098552 0.6603334
-0.024539659 0.19056502 0.66070002
-0.015392567 0.19236241 0.66042852
-0.0055085281 0.19156936 0.66044998
0.0060879816 0.19216745 0.66028565
0.014716827 0.19235857 0.6612221
0.024812916 0.19280833 0.6620689
0.03470825 0.19164219 0.66049999
0.045240667 0.19322065 0.66158825
0.055196442 0.19288658 0.66121882
0.064972579 0.19351345 0.66164851
0.074954957 0.19342814 0.66133332
0.086083755 0.19202185 0.66113639
0.095797628 0.1935014 0.66158336
0.10465282 0.19374506 0.66221052
0.11116112 0.19108218 0.66150004
-0.11214247 -0.081618547 0.67133337
-0.10516516 -0.083299428 0.67525005
-0.12405741 -0.075874247 0.67000002
-0.11349626 -0.078273296 0.67100006
-0.10562522 -0.076636538 0.67407417
-0.082104839 -0.07018315 0.67833334
-0.093739375 -0.064300522 0.67849994
-0.08680819 -0.068082199 0.67762494
-0.073277161 -0.065038174 0.67850006
-0.10475249 -0.059744675 0.67700005
-0.0933097 -0.057135146 0.67509526
-0.085806578 -0.054920509 0.6758889
-0.08837834 -0.04893291 0.67000002
-0.084882818 -0.032728329 0.67116672
-0.071713328 -0.033191085 0.67308336
-0.066940613 -0.032272674 0.67635
-0.071386538 -0.025676686 0.67112499
-0.066445217 -0.025040351 0.67312133
-0.071256585 -0.01801374 0.67566663
-0.067880698 -0.019498939 0.67616677
0.0062991702 0.029795358 0.67200005
0.006308544 0.031302504 0.67300004
0.0092707528 0.047583371 0.67566675
0.014308582 0.047657091 0.67305893
0.039775062 0.041356988 0.67000002
0.041745454 0.042460371 0.67360008
0.0088138282 0.054636579 0.67816669
0.015160308 0.054708369 0.67529786
0.021990512 0.05862096 0.67175001
0.017232781 0.065689094 0.67524999
0.021898283 0.064232603 0.67266667
0.017775392 0.073946662 0.67649996
0.020858863 0.071263507 0.67050004
0.02720912 0.08650478 0.67328578
0.032542117 0.089547969 0.671
0.032995939 0.091402166 0.67033339
-0.13162726 0.15998058 0.67900002
-0.12498591 0.15998058 0.67899996
-0.11908253 0.15998058 0.67900002
-0.163752 0.16637096 0.67692852
-0.15527554 0.16661689 0.67683321
-0.14567925 0.16652165 0.6773423
-0.13437147 0.16608009 0.67731714
-0.1247614 0.1652641 0.67726094
-0.11495163 0.16573399 0.67705017
-0.10502335 0.16591996 0.67609763
-0.095480427 0.16623846 0.6775952
-0.084841445 0.1675933 0.67804009
-0.074636646 0.16689388 0.67844462
-0.064681679 0.16554344 0.67747629
-0.055691712 0.16689998 0.6773144
-0.04484437 0.16674775 0.67719442
-0.035693098 0.16649166 0.67761284
-0.024698755 0.1669071 0.67735302
-0.015081835 0.16755629 0.67669564
-0.0052585951 0.16766346 0.67692596
0.0034103438 0.16750731 0.67830437
0.017305 0.16820012 0.67814291
0.025587713 0.16665103 0.67797452
0.03371729 0.16806398 0.67812502
0.045282114 0.16862011 0.67887497
0.053658471 0.16868168 0.67838466
0.06584157 0.16839293 0.67899996
0.074991852 0.16883568 0.67900002
0.084564656 0.16817932 0.67883331
0.10701823 0.16858588 0.67800003
0.11442857 0.16807693 0.67823082
0.12074322 0.16809776 0.67900002
0.13624896 0.16867995 0.67792314
0.14140514 0.16735984 0.67900002
-0.1633136 0.17390837 0.67451847
-0.15471132 0.17447105 0.67253202
-0.14493094 0.17506661 0.67330772
-0.13549921 0.17458281 0.67325574
-0.12518749 0.17315896 0.67287892
-0.11490329 0.17425001 0.67295557
-0.10530546 0.17324342 0.67151356
-0.094493791 0.17307086 0.67270583
-0.085180454 0.17381959 0.6740455
-0.074943416 0.17398147 0.67443758
-0.065375902 0.17472157 0.6734001
-0.055127043 0.17318226 0.67297143
-0.044717763 0.17320941 0.67291445
-0.034937497 0.17531098 0.67369556
-0.024635047 0.17513426 0.67416322
-0.015167513 0.17439246 0.67240477
-0.0054219528 0.17459746 0.67314583
0.0050249374 0.17490689 0.67484885
0.014863562 0.17450513 0.6745193
0.025611833 0.17447576 0.67371112
0.035386804 0.17549069 0.6732223
0.045067858 0.17475204 0.6741482
0.054837178 0.17527992 0.67431676
0.0651301 0.17474529 0.6761964
0.075133681 0.17513746 0.67566103
0.085156836 0.17483757 0.67611539
0.094841555 0.17605641 0.67500001
0.10464793 0.1751055 0.67498159
0.1149077 0.17515285 0.67535734
0.12506358 0.17484696 0.67734629
0.13304688 0.17389284 0.67572427
-0.15463658 0.18242767 0.67314291
-0.030912232 0.18076783 0.67125005
-0.0275709 0.18071608 0.67160004
0.03613434 0.1811607 0.67000002
0.064670652 0.18081637 0.67142856
0.076187 0.18133099 0.67108339
0.084886484 0.18225072 0.67196167
0.091938958 0.18099834 0.67075002
0.11803781 0.18024085 0.67200005
0.12506047 0.18126854 0.67499995
-0.081780203 -0.072678708 0.68800002
-0.079188101 -0.071619526 0.68500006
-0.10534508 -0.061562795 0.68083334
-0.092020027 -0.062543176 0.67999995
-0.084721424 -0.063853249 0.68040007
-0.077544503 -0.064642295 0.68211532
-0.066126302 -0.035812162 0.68080008
0.043154284 0.045260679 0.685
0.0074353092 0.056996543 0.68290007
0.0058746664 0.063839279 0.686625
0.009446837 0.074674219 0.68850005
0.014145481 0.075848855 0.68420011
0.0059569278 0.087914281 0.68866664
0.016031442 0.085978925 0.68804544
0.023482412 0.087484851 0.68337506
0.060371634 0.082964629 0.68900001
0.012725401 0.090891451 0.68780005
0.025530403 0.093668662 0.68516666
-0.18148856 0.14885843 0.68900001
-0.17695282 0.14832322 0.68883342
0.17119302 0.14137051 0.68900001
-0.1827655 0.15479918 0.68878269
-0.17469922 0.15461664 0.68726081
-0.1649947 0.15561175 0.68580002
-0.15507562 0.15509686 0.68569225
-0.14508083 0.1565001 0.68610001
-0.13513345 0.15616821 0.68556392
-0.12525287 0.15628336 0.68428946
-0.11513075 0.15565787 0.68559563
-0.1049288 0.15617619 0.68547618
-0.095040314 0.15583019 0.68635416
-0.084731765 0.15558821 0.68569773
-0.075328782 0.15588003 0.68469763
-0.06492243 0.15587477 0.68369055
-0.054759718 0.15563504 0.68634093
-0.045220759 0.15642659 0.6879999
-0.035299789 0.15631019 0.68559521
-0.025388304 0.15759532 0.68667752
-0.01474377 0.15712543 0.68651623
-0.00516837 0.15630072 0.68546349
0.0047001364 0.1556773 0.68448889
0.015877629 0.15748863 0.6870001
0.025227651 0.15591742 0.68564111
0.034397811 0.1567087 0.68578947
0.045572817 0.15829499 0.68633336
0.055342518 0.15720463 0.68666685
0.064290941 0.15809475 0.68671995
0.076008596 0.15674533 0.68678796
0.084482633 0.15681884 0.68678135
0.094265699 0.15717256 0.68770832
0.10529143 0.15843967 0.68712503
0.11237238 0.15890931 0.68875003
0.12645425 0.15849632 0.68822223
0.13425638 0.15821362 0.68828583
0.1412413 0.15934153 0.68900001
-0.18134649 0.16222912 0.6877501
-0.17470098 0.16405849 0.68621886
-0.16579923 0.16248938 0.68127781
-0.15507795 0.16163486 0.68044448
-0.14393862 0.16198082 0.68121064
-0.13755935 0.16213205 0.68060005
-0.12516999 0.1602162 0.68000001
-0.11386955 0.16105998 0.68072742
-0.10522262 0.16102894 0.6808334
-0.094383672 0.16131353 0.68107158
-0.085164703 0.16263792 0.68051857
-0.075094976 0.16230516 0.68050009
-0.065403409 0.16057083 0.68011111
-0.053914294 0.16193336 0.68265212
-0.045720965 0.16194458 0.68352169
-0.03467042 0.16182402 0.68055016
-0.024285618 0.16205734 0.68123806
-0.015249193 0.16267686 0.68143481
-0.005459141 0.16269596 0.68110716
0.0057419469 0.16315578 0.68096662
0.014675329 0.16380095 0.68219519
0.024445057 0.1613899 0.68050003
0.035261996 0.16341177 0.6808182
0.044631884 0.16397175 0.68162793
0.055508461 0.16400613 0.68158972
0.064712726 0.16392559 0.6815716
0.074564241 0.16444735 0.68212503
0.085146397 0.16364025 0.68197447
0.095183291 0.16509123 0.6840198
0.10444928 0.16399145 0.6830436
0.11507045 0.16356131 0.68476313
0.12512229 0.16420254 0.6829434
0.13470472 0.16380431 0.68295461
0.14318818 0.16307685 0.68527281
0.096499622 0.17135468 0.68080008
0.1246161 0.17056237 0.68000001
-0.14607686 0.20041718 0.68100005
-0.082700878 -0.075339004 0.69319999
-0.07924746 -0.074605376 0.69200003
0.002931965 0.057703767 0.69300002
-0.0036692224 0.066430591 0.69578952
0.0022361148 0.065043271 0.69300002
-0.0045465115 0.07362064 0.69731039
0.0043045115 0.0760023 0.69538462
0.011482992 0.078199007 0.69100004
0.058883425 0.079496905 0.69800007
0.0072031496 0.083892964 0.69176
0.014305336 0.083810136 0.69060886
0.021465499 0.089084096 0.69000006
0.057553388 0.08337076 0.6950714
0.017822785 0.09262576 0.69400001
0.022632083 0.09528967 0.6930477
-0.20222211 0.13885088 0.6976667
-0.19451225 0.13747299 0.69681484
-0.18855327 0.13803315 0.69822228
-0.17216422 0.13909411 0.69825006
-0.16413735 0.13824183 0.69786966
-0.15603793 0.13773298 0.69870597
-0.14465082 0.1380783 0.69791681
-0.13426347 0.13640212 0.69842428
-0.1252474 0.13738506 0.69847625
-0.11481433 0.13819845 0.69747627
-0.10556092 0.13808879 0.6973334
-0.095221207 0.13892728 0.69752938
-0.084888868 0.1385521 0.69820011
-0.074456036 0.13890624 0.69731253
-0.064083807 0.13797213 0.69788009
-0.054946214 0.13703272 0.69689637
-0.048027813 0.1385318 0.69733334
-0.0040771514 0.13942319 0.69800007
0.0555504 0.13886437 0.69900006
0.16966258 0.13958035 0.69500005
0.17247891 0.13905337 0.6954
-0.2017954 0.14199746 0.69575006
-0.19428152 0.1443125 0.694139
-0.18544829 0.14516075 0.69421422
-0.1748236 0.14429504 0.69397295
-0.16499947 0.14536174 0.69362217
-0.15504512 0.14469108 0.69383669
-0.14513949 0.14504346 0.69316673
-0.13474487 0.14504085 0.6942116
-0.12508874 0.14502022 0.6944167
-0.11522356 0.14554062 0.69368875
-0.10506823 0.14533329 0.69365293
-0.094947577 0.14504148 0.69306797
-0.085225388 0.1454109 0.69325542
-0.074927241 0.14536589 0.69379604
-0.065052323 0.14536645 0.6943022
-0.055261046 0.14554076 0.69418734
-0.044659112 0.1451105 0.69477355
-0.035074558 0.14514488 0.6952827
-0.025224598 0.14494345 0.69541103
-0.01461528 0.14504129 0.6954183
-0.0048291013 0.14490281 0.69468081
0.0047065704 0.14585288 0.69489133
0.014918369 0.14574358 0.69509727
0.024429943 0.1454621 0.69570577
0.035263982 0.14680712 0.69663417
0.045230273 0.14529862 0.69599998
0.054904286 0.14498426 0.69560748
0.064803965 0.14626895 0.69640476
0.075080656 0.14696154 0.69605726
0.085168481 0.14630301 0.69525582
0.095008686 0.14638269 0.69572979
0.10430045 0.14656545 0.69751728
0.11546677 0.14742887 0.69742876
0.12546284 0.14733145 0.69620001
0.13457726 0.14719065 0.69657153
0.14565945 0.14710972 0.69745171
0.15347759 0.14684726 0.69669235
0.16625799 0.14442489 0.69614297
0.17106214 0.14038044 0.69150007
-0.19321625 0.15166564 0.69616669
-0.18665481 0.15364505 0.6908462
-0.17050378 0.15057425 0.69000006
-0.16467503 0.15073012 0.6907143
-0.15175679 0.15057425 0.69000006
-0.14507776 0.15164684 0.69033343
-0.1345423 0.15143463 0.69076931
-0.12476761 0.15196376 0.69086665
-0.11447027 0.15078899 0.69012505
-0.1053747 0.15117912 0.69027275
-0.094698019 0.15085086 0.69028574
-0.085850671 0.15090753 0.69000006
-0.073777661 0.15127832 0.69072729
-0.06485001 0.15150616 0.69083339
-0.055899519 0.15102877 0.69055557
-0.044298518 0.15189041 0.69087505
-0.034808192 0.15146978 0.69066668
-0.024478342 0.15299033 0.69144005
-0.014989187 0.15245925 0.69142866
-0.0051263925 0.15141465 0.69072729
0.0059288172 0.1514347 0.69081819
0.015122681 0.15272091 0.69076014
0.02448938 0.15121965 0.69066668
0.035774391 0.1521627 0.69116676
0.045124914 0.15390687 0.69173342
0.054000083 0.15253057 0.69142866
0.065547556 0.15344715 0.69146687
0.074198551 0.15256307 0.69078958
0.085478514 0.15201396 0.6914376
0.095387936 0.15303068 0.69179177
0.1050598 0.15348043 0.69325644
0.11530644 0.15426104 0.69257152
0.12467536 0.1543346 0.69166672
0.13565972 0.15369418 0.69200009
0.14483711 0.15468082 0.6925
0.15455754 0.15419146 0.69546425
0.16070569 0.15248425 0.69875008
-0.17901152 0.16806471 0.69100004
0.147695 0.16059285 0.6911667
0.15098995 0.16090302 0.6925
-0.17650282 0.17007114 0.69000006
