# .PCD v0.7 - Point Cloud Data file format
VERSION 0.7
FIELDS x y z
SIZE 4 4 4
TYPE F F F
COUNT 1 1 1
WIDTH 1121
HEIGHT 1
VIEWPOINT 0 0 0 1 0 0 0
POINTS 1121
DATA ascii
0.11406861 0.19852068 0.51777279
0.10977647 0.20181233 0.51900005
0.11507878 0.20072016 0.51642114
0.12127779 0.20174038 0.51833338
0.10777847 0.18773195 0.5284211
0.11194544 0.18840478 0.52799994
0.10688356 0.19531721 0.52572459
0.11474134 0.19451387 0.52374649
0.12183626 0.1980893 0.52560002
0.10482786 0.20268239 0.52511364
0.12511884 0.20221844 0.52418178
0.13004236 0.20588577 0.528
0.10585365 0.17810184 0.53767651
0.11121148 0.17852032 0.5384286
0.099380769 0.18608934 0.53846669
0.10433304 0.1843432 0.53351289
0.11470781 0.18507513 0.53444839
0.12117164 0.18896803 0.537
0.096576422 0.1961631 0.5363906
0.10192382 0.19417441 0.53152937
0.11831294 0.19130638 0.53150004
0.12441526 0.19491011 0.53369397
0.13016655 0.19926074 0.53800005
0.095533811 0.20318194 0.53341931
0.10093947 0.20194696 0.53014284
0.12819946 0.20185907 0.53130007
0.1342435 0.20478308 0.53478277
0.14165621 0.20889322 0.53785717
0.14446712 0.21017507 0.53900003
0.098230541 0.16774513 0.54857147
0.10302117 0.16746731 0.54790324
0.097249858 0.17592485 0.54671437
0.10428593 0.17368625 0.54329234
0.11364231 0.17672226 0.54499996
0.089453653 0.18738586 0.54888892
0.094735399 0.18480979 0.54398727
0.10013358 0.18004815 0.54000002
0.11786984 0.18195759 0.54299998
0.12294163 0.18622181 0.5452143
0.088760145 0.19241281 0.54708332
0.092865549 0.19280189 0.54213887
0.12775116 0.19253615 0.54373914
0.13328089 0.19669786 0.54635143
0.13716614 0.20218123 0.54307413
0.14362474 0.2062404 0.54410535
0.14822552 0.21077023 0.54357141
0.15224046 0.21289004 0.54800004
0.096266389 0.15688139 0.55735904
0.1021901 0.157933 0.5572353
0.089114897 0.1682597 0.55755556
0.094587907 0.16454592 0.55419487
0.10561825 0.16391933 0.55320448
0.11254589 0.16818899 0.5562222
0.087229408 0.17566422 0.55684775
0.092449099 0.17457084 0.55200005
0.10916066 0.1702323 0.55000001
0.11591868 0.17378056 0.55316663
0.1218356 0.17786573 0.55620003
0.087112844 0.18348213 0.55223531
0.090639487 0.18152012 0.55057138
0.12629355 0.18420584 0.55356759
0.13187499 0.18777302 0.55721432
0.087642364 0.19055514 0.55000001
0.13628642 0.19381395 0.55435896
0.14269817 0.19767004 0.55673915
0.14630593 0.2033006 0.55328947
0.15327024 0.20723256 0.55627584
0.15605105 0.21248749 0.55380648
0.16232769 0.21563762 0.55741668
0.089354672 0.14939082 0.56850004
0.094646968 0.14680366 0.5666154
0.10091696 0.14894105 0.56819999
0.088337474 0.15603067 0.56635487
0.093877465 0.15310977 0.56145459
0.10494116 0.15487233 0.56463045
0.11136909 0.15824449 0.56812507
0.07943435 0.16538042 0.56825
0.085081153 0.16497315 0.56460017
0.090506911 0.16125067 0.56033331
0.10860484 0.16150151 0.56050003
0.11495432 0.16506556 0.56462222
0.1215828 0.16914229 0.56814289
0.084294595 0.17206712 0.5618571
0.11933127 0.17140049 0.56033331
0.12503505 0.17486227 0.56419998
0.13069522 0.17802909 0.56880003
0.12878546 0.18139887 0.56185716
0.13526918 0.18593182 0.56494874
0.1421375 0.18853061 0.56791669
0.13853614 0.19085325 0.56083339
0.14519696 0.19483225 0.56423694
0.15174651 0.19864073 0.56800002
0.14901142 0.20089301 0.56050003
0.15566055 0.20393273 0.56446344
0.16219814 0.20792642 0.56735712
0.15983327 0.21106052 0.56
0.16558442 0.21433291 0.56456757
0.17216694 0.21915668 0.56766671
0.17552315 0.22113013 0.56800002
0.087270595 0.13649806 0.57685298
0.093756638 0.13705102 0.57564288
0.079678573 0.14837509 0.57900006
0.085621156 0.14536509 0.57479995
0.095252283 0.14218687 0.57123995
0.10367627 0.14634474 0.57496786
0.078199692 0.1550058 0.57738471
0.08336322 0.15464033 0.57260001
0.10823321 0.15199992 0.57293338
0.11380162 0.15567057 0.57548481
0.07794258 0.16243626 0.57376194
0.081767529 0.1611893 0.57016677
0.11816952 0.16222851 0.57240003
0.12411024 0.16651726 0.57494289
0.13001835 0.16914025 0.57900006
0.12822133 0.17159474 0.57210004
0.13457677 0.17556216 0.57613045
0.14050579 0.17794971 0.57900006
0.13710098 0.18256021 0.57308334
0.14363846 0.18562549 0.57526672
0.14829604 0.19220895 0.57183343
0.15374562 0.19567677 0.57428575
0.15812734 0.20117046 0.57142866
0.164066 0.20533122 0.57328576
0.17029017 0.20941207 0.57900006
0.16877253 0.21217057 0.57142866
0.17432873 0.21625115 0.57507682
0.18035811 0.21948002 0.57900006
0.17861262 0.22072574 0.57180005
0.18294972 0.22305234 0.57658339
0.079774484 0.12981389 0.58900005
0.085357487 0.12617205 0.58592862
0.092390917 0.12778631 0.58652633
0.078259103 0.13625561 0.58768183
0.083275437 0.13424353 0.58239132
0.095812514 0.13331906 0.58300006
0.10180101 0.13778871 0.58581817
0.069099784 0.14427216 0.58533335
0.075335741 0.14513943 0.58501488
0.081075288 0.14242181 0.58089995
0.10627825 0.14348499 0.5836429
0.11257827 0.1474869 0.58527273
0.075399972 0.15304901 0.58258826
0.11705502 0.15334105 0.58338457
0.12276984 0.15736485 0.58591306
0.12654261 0.16289884 0.58326668
0.13287862 0.16760117 0.58504558
0.13714524 0.17176954 0.58287501
0.14325207 0.17734754 0.58435297
0.14724351 0.18373777 0.58293104
0.15373515 0.18717964 0.58650005
0.1609329 0.18982342 0.58850002
0.15683378 0.19280468 0.5822069
0.16282856 0.19606383 0.58555168
0.16631845 0.20306997 0.58370364
0.17223664 0.20767699 0.5862
0.17685686 0.21293437 0.58344454
0.18271968 0.2178206 0.58556247
0.18718512 0.22304308 0.58391303
0.19325846 0.22605659 0.58672732
0.078628428 0.11683488 0.59793752
0.084419154 0.11658686 0.59486002
0.090856634 0.11866567 0.59733337
0.075958095 0.1254046 0.59561419
0.08295352 0.12195241 0.59088892
0.094921663 0.12493354 0.59409678
0.10092431 0.1287639 0.59800005
0.068713866 0.13362008 0.59860003
0.073640935 0.13448937 0.59340352
0.098767012 0.13123697 0.59079999
0.10482085 0.13520379 0.59386498
0.11093546 0.13924389 0.59650004
0.072007552 0.1409016 0.59040004
0.10867352 0.14130734 0.59066671
0.11538157 0.14458072 0.59375763
0.12182049 0.14883541 0.59662503
0.11976584 0.15132153 0.5905
0.12555446 0.15442756 0.5932188
0.13153815 0.1578927 0.59572732
0.12992366 0.16081198 0.59000003
0.13600728 0.16442837 0.59360003
0.1420538 0.1674969 0.59661537
0.14535071 0.17440356 0.5935294
0.15113662 0.1787459 0.59680003
0.1491597 0.18004802 0.59000003
0.15587327 0.18377174 0.59334487
0.16189374 0.18802708 0.59544444
0.16674773 0.19461381 0.59249997
0.17194866 0.19843343 0.5968889
0.16982195 0.20137766 0.5905
0.17564049 0.20480832 0.59379548
0.18140015 0.207221 0.59811109
0.17993739 0.21210812 0.59000003
0.1854831 0.21454039 0.59397626
0.19180425 0.21863131 0.59600002
0.18907431 0.22063001 0.5905
0.19569631 0.22309896 0.59299994
0.20253137 0.22794363 0.59706253
0.19917344 0.23006175 0.59000003
0.20534946 0.23135091 0.59572732
0.21002348 0.23357117 0.59900004
0.076036312 0.10580415 0.60643744
0.083893545 0.10719332 0.60543758
0.090425506 0.10907152 0.60900003
0.068629771 0.11738359 0.60781825
0.073931694 0.11444113 0.60281038
0.085970581 0.1117162 0.60119045
0.094116852 0.11565502 0.60476923
0.10101511 0.11966113 0.60900003
0.066441856 0.1252452 0.6051321
0.071779706 0.12302727 0.60066664
0.097686939 0.12268621 0.60275
0.10369373 0.12561965 0.60585713
0.066973478 0.13104215 0.60050005
0.10763219 0.13237533 0.60250008
0.11409009 0.13626754 0.6049394
0.12087063 0.13951665 0.60900003
0.11728138 0.14178987 0.60133338
0.12403981 0.14551152 0.60412121
0.12813722 0.15190604 0.60099995
0.13438791 0.15560073 0.60431033
0.14072615 0.15937217 0.60900003
0.13849364 0.16109504 0.60160005
0.14430813 0.16523387 0.60352176
0.14839494 0.17202003 0.60100001
0.15411624 0.17577083 0.60397226
0.1581001 0.18156354 0.60171431
0.16475637 0.18596624 0.60441947
0.17117128 0.18981729 0.60900003
0.16844469 0.19242027 0.60162508
0.17428416 0.19570927 0.60420007
0.18080057 0.19941598 0.60800004
0.1783542 0.20108964 0.60049999
0.18480736 0.20514286 0.60325712
0.1912165 0.20915474 0.60750002
0.1883311 0.21176895 0.60100001
0.19492453 0.21522407 0.60356247
0.20128465 0.21761613 0.60742855
0.19913344 0.22081777 0.60150003
0.20514724 0.22494598 0.60275763
0.21177636 0.2280345 0.60536367
0.2087514 0.23061121 0.60033333
0.21480212 0.23329484 0.60430443
0.22074459 0.23669067 0.60700005
0.068093859 0.097608306 0.61656249
0.074731804 0.09564016 0.61424559
0.082914077 0.09780658 0.61505884
0.066358276 0.10545261 0.6148572
0.072050638 0.10309977 0.61100006
0.086237572 0.1032884 0.61262071
0.092999093 0.10736176 0.6148333
0.059427202 0.11720976 0.61700004
0.064625725 0.11483433 0.61322004
0.097745299 0.11292344 0.61287493
0.10344052 0.11670321 0.61437041
0.062424306 0.12104979 0.61054552
0.10763792 0.12356921 0.61165005
0.11333701 0.12692191 0.61534619
0.11696196 0.13299423 0.61264002
0.12336188 0.13672982 0.61480772
0.12740417 0.14298211 0.61252379
0.13338847 0.14692555 0.61544001
0.13698696 0.1529517 0.61234784
0.14283323 0.15649034 0.61534786
0.14718118 0.16347757 0.61300004
0.15249217 0.16732307 0.61575001
0.15625061 0.17234293 0.61277777
0.16335167 0.17712364 0.61530435
0.16691516 0.18269633 0.61320001
0.1737037 0.18640547 0.61460727
0.17703097 0.1932421 0.61247623
0.1833192 0.19684151 0.61488891
0.18732494 0.2019771 0.61253846
0.19350897 0.20645943 0.61446166
0.19792365 0.21158032 0.61209095
0.204567 0.21579418 0.61484015
0.20741394 0.22226797 0.61271429
0.2136521 0.22620344 0.61436844
0.2185555 0.23217773 0.61133337
0.2239254 0.23566914 0.61466664
0.22803435 0.24020009 0.61600006
0.23011795 0.24097994 0.61800003
0.068010956 0.079279855 0.62816674
0.072560742 0.07911098 0.62785721
0.067012146 0.085569955 0.62656409
0.074619196 0.085607708 0.62423986
0.081244051 0.088625617 0.62666672
0.058594078 0.097762585 0.62819999
0.06422133 0.094742693 0.62458825
0.076856203 0.091309763 0.62099993
0.085189663 0.094344601 0.62424999
0.091858417 0.098017782 0.62577778
0.058317825 0.10479075 0.62427777
0.061456252 0.10375764 0.62184215
0.089363582 0.10026073 0.62
0.095878527 0.10431966 0.62367654
0.10191673 0.10763562 0.62722224
0.059436653 0.11314928 0.62314284
0.060743704 0.11285407 0.62133336
0.10583395 0.11347276 0.62351841
0.11218197 0.11763871 0.62592858
0.11629643 0.12386037 0.62349999
0.12207704 0.12773179 0.62561542
0.12626179 0.13360119 0.62362498
0.13226323 0.1380527 0.62691671
0.13627 0.14399955 0.62426925
0.14211932 0.14779702 0.62572724
0.14643683 0.15424633 0.62385708
0.15234211 0.15790942 0.62709093
0.15553372 0.16418976 0.62369436
0.16181935 0.16774935 0.62636369
0.15907584 0.17087726 0.62033337
0.165921 0.17430036 0.62384999
0.17308354 0.17827055 0.62636369
0.17618828 0.183474 0.62383342
0.18375528 0.18775493 0.62609524
0.18635698 0.19370213 0.62282765
0.19257081 0.19740511 0.62578946
0.19684251 0.20392552 0.62322211
0.20270176 0.20728505 0.62607145
0.20642011 0.21312073 0.62409526
0.212644 0.21725981 0.62562495
0.21653381 0.22428469 0.62328005
0.22359683 0.22751071 0.62654167
0.22634007 0.23272009 0.62307405
0.23286578 0.23685601 0.62485719
0.2359488 0.24147579 0.62318748
0.24223113 0.24332061 0.62699997
0.064983793 0.069962911 0.63866669
0.059137896 0.079134069 0.63800001
0.064709932 0.075006984 0.63576919
0.073839299 0.0762171 0.63576007
0.056691542 0.086113386 0.63574356
0.062273983 0.084179215 0.63169563
0.07863459 0.081505217 0.63400006
0.084270477 0.086287528 0.63589662
0.090713233 0.089444153 0.63900006
0.056589939 0.093465403 0.63261539
0.060679317 0.091607742 0.63000005
0.088325463 0.091654606 0.63350004
0.094241671 0.095583789 0.63607407
0.10105145 0.099088907 0.63850003
0.099149108 0.10098384 0.63300002
0.10514639 0.10525808 0.63518751
0.11119772 0.10923925 0.63700002
0.10783692 0.11069892 0.63150001
0.11502612 0.11469198 0.63519353
0.12207452 0.11914496 0.63740003
0.11896098 0.121366 0.63166672
0.12528408 0.12424341 0.63488889
0.13113326 0.12847833 0.63800001
0.12897171 0.13115087 0.63250005
0.13508126 0.13493408 0.63537496
0.14080916 0.13861889 0.63733333
0.13866442 0.1415253 0.63125002
0.14501485 0.14494802 0.63525808
0.15158804 0.1486551 0.63800001
0.14872837 0.15124863 0.63175005
0.1551588 0.15480986 0.63506061
0.16154754 0.15888956 0.63900006
0.15886061 0.16126716 0.63200003
0.1647442 0.1647217 0.63525808
0.1711359 0.16917334 0.63850003
0.16875118 0.17230213 0.63216668
0.17474651 0.17494258 0.63496977
0.18138222 0.17942889 0.63550007
0.17872633 0.18090084 0.63100004
0.18496023 0.18468727 0.63488001
0.19122033 0.18833804 0.63683337
0.19565132 0.19500624 0.63494998
0.2001233 0.1988562 0.63800001
0.19908494 0.20057833 0.63250005
0.20541754 0.20448297 0.63544834
0.21144037 0.2085125 0.63700002
0.2095769 0.21198195 0.63166672
0.21554993 0.21494764 0.63518518
0.22221181 0.21817151 0.63771433
0.21895683 0.22135957 0.63100004
0.22542173 0.22356942 0.63445455
0.23234735 0.22796457 0.63700008
0.23595524 0.23437472 0.63468188
0.24157333 0.2383652 0.63760006
0.24535397 0.24316823 0.63509512
0.25242317 0.24684909 0.63700002
0.059688039 0.059809741 0.64900005
0.062857337 0.059152823 0.64842856
0.057550501 0.065967418 0.64569569
0.064550735 0.065145224 0.64365232
0.073177502 0.067594543 0.64627779
0.049813531 0.078853428 0.64900005
0.055297121 0.07500945 0.64443481
0.063497253 0.070572674 0.64000005
0.07670527 0.073231727 0.64304352
0.08300288 0.076976724 0.64668417
0.04912252 0.083335929 0.64687502
0.053103078 0.083112329 0.64333338
0.086634502 0.082692504 0.64324999
0.092582621 0.086502925 0.64576471
0.097081631 0.09316545 0.6432941
0.10306043 0.096936882 0.64577776
0.10788617 0.10239749 0.64449996
0.11338345 0.10700893 0.6455
0.057648823 0.11637722 0.64200002
0.11794897 0.11211845 0.64362502
0.12352038 0.11709896 0.64446664
0.12848431 0.1211524 0.64266676
0.13440596 0.12656628 0.64566666
0.14009474 0.12893128 0.64900005
0.13831443 0.13243762 0.64139998
0.14365713 0.13607903 0.64628571
0.1513799 0.13880579 0.64900005
0.14831258 0.14208136 0.64323074
0.15417597 0.14479719 0.64541185
0.1585499 0.15201625 0.64375007
0.16440284 0.15682277 0.64583999
0.16783431 0.16235565 0.64340007
0.17408253 0.16629957 0.64522219
0.18100341 0.16983996 0.64900005
0.17760314 0.17226122 0.64227277
0.18235037 0.1753076 0.64579999
0.18835728 0.18330614 0.6404286
0.19349395 0.18606406 0.64469236
0.1984054 0.1929394 0.64216667
0.2042322 0.19707063 0.64529622
0.21062693 0.19946347 0.64900005
0.20780994 0.20157924 0.64227271
0.2133446 0.20505272 0.64442867
0.21783523 0.21236105 0.64280003
0.22437292 0.21548687 0.64558625
0.23072784 0.21862967 0.64866668
0.22835557 0.22103222 0.64200002
0.23426059 0.22534496 0.6463809
0.23871972 0.23184882 0.64271432
0.24439505 0.23548245 0.6449374
0.25012496 0.23755087 0.64900005
0.24846119 0.24207021 0.64166671
0.25485715 0.24555872 0.64566672
0.26080593 0.24896295 0.64750004
0.25998598 0.25033838 0.64200002
0.26329869 0.25131726 0.64740002
0.055911478 0.048067488 0.65792859
0.060992494 0.048720043 0.65800005
0.05536551 0.055000253 0.65511543
0.064560823 0.054836784 0.65427774
0.071607932 0.058582872 0.65740001
0.048131984 0.068283364 0.65816671
0.053408168 0.06465248 0.65436375
0.06923236 0.061143171 0.65120006
0.07565283 0.064355686 0.65333325
0.081814222 0.068017863 0.65675002
0.047238417 0.074533552 0.65371871
0.050948378 0.071602412 0.65150005
0.085842319 0.074473388 0.6533913
0.091841593 0.078396857 0.65700006
0.096123643 0.084424481 0.65317863
0.10267087 0.087871857 0.65600008
0.099338897 0.090983875 0.65000004
0.10598322 0.094189182 0.65342301
0.11142582 0.098237909 0.65600008
0.11548834 0.10408916 0.65248001
0.12171383 0.10756502 0.65637499
0.12565215 0.11430138 0.65353578
0.13193235 0.11780449 0.65540004
0.13656801 0.12329485 0.65333337
0.14262877 0.1274325 0.65415382
0.14706177 0.13385466 0.65205002
0.15254553 0.13732931 0.65399998
0.15737827 0.14190461 0.65214294
0.16185358 0.14761956 0.65369999
0.16627449 0.15335289 0.652619
0.17226475 0.1573533 0.65511107
0.17644928 0.16299027 0.6525237
0.18255322 0.16639163 0.65528578
0.18643503 0.17462151 0.65320009
0.19280101 0.17843816 0.6569286
0.19680147 0.18349884 0.6529091
0.20293634 0.1871292 0.65605557
0.2062809 0.19285488 0.65291667
0.21310684 0.19682117 0.65476197
0.21750049 0.2040309 0.65194118
0.22423051 0.20749952 0.65592605
0.22641161 0.21226412 0.65193337
0.23221526 0.21654873 0.65420002
0.23766893 0.22370401 0.65170592
0.24306123 0.22720623 0.65388238
0.24723946 0.23286682 0.65169239
0.25454196 0.23730144 0.65500003
0.25702915 0.24298172 0.65175003
0.26346517 0.24618804 0.65462965
0.26780921 0.25182083 0.65209091
0.27388993 0.25416303 0.65608335
0.049869642 0.038367182 0.66866666
0.055078842 0.037259765 0.66682768
0.060754381 0.038357258 0.66850007
0.048395418 0.0468769 0.66573334
0.054695666 0.043917947 0.66225719
0.064450532 0.046041083 0.66413337
0.070819482 0.049181834 0.66750002
0.045804124 0.055713486 0.66331702
0.050657827 0.056041617 0.66000003
0.068005927 0.051701192 0.66128576
0.074409336 0.055770144 0.66377783
0.080190465 0.059292823 0.66700006
0.045268331 0.064306647 0.66227776
0.050657827 0.062258016 0.66000003
0.078611121 0.061949875 0.66183341
0.084529631 0.065917753 0.66500002
0.090609729 0.068923451 0.66900003
0.043485064 0.070865333 0.66000003
0.088167496 0.071855046 0.6615715
0.09450157 0.075679585 0.66496545
0.10063788 0.078984015 0.66800004
0.098543949 0.081419073 0.66125005
0.10535453 0.084645033 0.66386676
0.11189711 0.087933108 0.66760004
0.10905161 0.091473192 0.6603334
0.11499733 0.094906263 0.66400003
0.12144977 0.09882722 0.66800004
0.11838822 0.10166158 0.66171438
0.12536491 0.10525685 0.66462505
0.13206461 0.10847878 0.66783333
0.12817222 0.11179215 0.66025001
0.13486871 0.11464225 0.66376668
0.14237006 0.11898597 0.66760004
0.13885382 0.1207785 0.66100001
0.14518477 0.12449029 0.66420841
0.1513997 0.12866443 0.66775006
0.14888111 0.13027148 0.66300005
0.15557145 0.13466823 0.66444451
0.16165906 0.13809666 0.66716671
0.16548292 0.14499474 0.66446674
0.17234452 0.14797193 0.66680008
0.16902506 0.15094978 0.66100001
0.17521827 0.15490593 0.66407692
0.18108335 0.1594457 0.66750002
0.17899136 0.1609254 0.6606667
0.18546863 0.16416311 0.66313642
0.19105248 0.16849767 0.66600007
0.18923491 0.17141272 0.66050005
0.19540249 0.17474551 0.66393948
0.20212293 0.17830791 0.66750008
0.20653397 0.18526982 0.66278952
0.21247908 0.18815668 0.66539997
0.21605857 0.19386716 0.66319048
0.22184448 0.19849367 0.66659999
0.21993509 0.20140965 0.66000003
0.22629786 0.20367397 0.6633637
0.23298629 0.20721529 0.66483343
0.23619549 0.21484169 0.66391999
0.24203815 0.21789503 0.66736364
0.2382274 0.22111064 0.66100001
0.24576768 0.2239131 0.66446441
0.25198084 0.22711335 0.66650003
0.24862614 0.23010072 0.66000003
0.25564629 0.23364188 0.66374081
0.26276684 0.23728427 0.66492856
0.26688558 0.24322693 0.66295004
0.27309003 0.24758664 0.66542864
0.27628767 0.25260115 0.66258824
0.28416419 0.25695559 0.66542107
0.29040685 0.26008677 0.66700006
0.048030429 0.027243882 0.67760003
0.052713457 0.02744499 0.6766842
0.045439534 0.035065033 0.67548728
0.054610532 0.032427005 0.67328572
0.063143849 0.036649249 0.6755625
0.037634738 0.046592038 0.67733335
0.04390496 0.044312946 0.67479074
0.067690268 0.042258732 0.67449999
0.072970346 0.046635728 0.67620003
0.038171738 0.054009579 0.67478573
0.041544918 0.052477811 0.67330772
0.07736706 0.052567597 0.67446148
0.083939217 0.056311075 0.67616004
0.087289609 0.063098066 0.67281252
0.093808345 0.066600032 0.67631823
0.10081924 0.069953695 0.67900002
0.041723665 0.074271701 0.67800003
0.09752854 0.072895877 0.67325002
0.10373347 0.075986467 0.6761539
0.10798275 0.081276059 0.67500007
0.1146565 0.086424008 0.67611766
0.11836109 0.091387451 0.67383337
0.12398067 0.095554352 0.67556
0.1309782 0.099397458 0.67850006
0.12747677 0.10128536 0.67255557
0.13402967 0.10494914 0.67465216
0.1406672 0.10980166 0.67900002
0.13827424 0.1122996 0.67333341
0.14405715 0.11563458 0.67552
0.15077578 0.11921777 0.67800003
0.14826061 0.12232962 0.67216676
0.15434377 0.12578654 0.67592597
0.15788293 0.13145413 0.67328578
0.16459365 0.13552795 0.67544007
0.17092215 0.13858077 0.67900002
0.16840042 0.14199448 0.67271429
0.17435727 0.14453827 0.67552179
0.18024932 0.14942925 0.67800003
0.17876451 0.15205412 0.67333335
0.18451819 0.15614925 0.67631036
0.19084613 0.15924266 0.67900002
0.18719755 0.16120309 0.67383337
0.19436814 0.16688296 0.67559999
0.20073265 0.16919848 0.67750001
0.1982884 0.17149024 0.67320001
0.20451626 0.17520739 0.67575008
0.21061435 0.17829679 0.67850006
0.20840561 0.18220687 0.6728
0.21419542 0.18462123 0.67530769
0.22003861 0.18774486 0.67800003
0.2184159 0.19074872 0.67300004
0.22437693 0.19583791 0.67543483
0.23084629 0.19904304 0.67800003
0.22820546 0.20091155 0.67275
0.23486219 0.20431377 0.67631823
0.23962337 0.21122155 0.67300004
0.24514858 0.21460941 0.67556
0.25135481 0.21869098 0.67799997
0.248329 0.22097597 0.67240006
0.25512904 0.22448929 0.67503566
0.2618227 0.2284878 0.67771435
0.25855908 0.23120694 0.67240006
0.26528603 0.23389827 0.67421424
0.27137607 0.23734204 0.67739999
0.26961425 0.24048424 0.67300004
0.27558169 0.24466789 0.67533332
0.28098884 0.24798205 0.67750001
0.27943808 0.25035137 0.67200005
0.28556824 0.25374499 0.67570835
0.29298145 0.25781357 0.67650002
0.29634362 0.26154989 0.6749
0.30064678 0.26398611 0.67700005
0.046195544 0.017307824 0.68668008
0.051804412 0.018799778 0.68660003
0.038582936 0.026304314 0.68770009
0.043951433 0.024265034 0.68328571
0.055516787 0.024063613 0.68360013
0.061463691 0.02780503 0.68779999
0.035918139 0.03534672 0.68608338
0.041173469 0.032861672 0.68110007
0.059670661 0.030194404 0.68100005
0.065642193 0.033840999 0.68394738
0.071524948 0.038357068 0.68583339
0.035720054 0.042624094 0.68306255
0.076136649 0.044474542 0.68330014
0.081939481 0.048779894 0.68566674
0.085776031 0.052963469 0.68358344
0.09184365 0.057864115 0.68544453
0.096755989 0.063441709 0.68365002
0.10274362 0.067053512 0.68653858
0.10688517 0.072885141 0.68253338
0.11196514 0.077767707 0.68657154
0.11626479 0.083571382 0.68420005
0.12338728 0.087133706 0.68526316
0.12756519 0.092917129 0.68278581
0.13243093 0.095884003 0.68506253
0.13648196 0.10198436 0.68266672
0.1441832 0.10803497 0.68575007
0.1469188 0.11299942 0.68307149
0.15272851 0.11683568 0.68566674
0.15722004 0.12286344 0.68284619
0.16299111 0.12638895 0.68494439
0.16699943 0.13239914 0.68315387
0.17336006 0.13675915 0.68493336
0.17756242 0.14239779 0.68277782
0.18348441 0.14774707 0.68535715
0.18723395 0.15244375 0.68238461
0.19401816 0.15653189 0.6852501
0.19670282 0.16383329 0.68370008
0.20309666 0.16675904 0.68643755
0.20815174 0.17279288 0.68300003
0.21294649 0.1765088 0.68546158
0.21765921 0.18207835 0.68442857
0.222385 0.18787721 0.68525004
0.22711562 0.19332094 0.68341666
0.23288846 0.19702624 0.68546164
0.23796444 0.2021873 0.6825
0.24413411 0.2071802 0.68552941
0.24708386 0.21157308 0.68310004
0.25420636 0.21605299 0.68530434
0.25845328 0.22203948 0.68150002
0.26372787 0.22567841 0.68485719
0.26903322 0.23206572 0.68266672
0.27434394 0.23648077 0.68688893
0.27778083 0.24199207 0.68137503
0.28450266 0.24591465 0.68495661
0.28817102 0.25155473 0.68159997
0.29488426 0.25531936 0.6843158
0.30223185 0.25893104 0.68900001
0.30378479 0.26374415 0.68439996
0.31046855 0.26866534 0.68900001
0.038671903 0.0077272193 0.69739997
0.044271611 0.007634324 0.69604993
0.05054019 0.0097080739 0.69800001
0.037014402 0.01532219 0.69525921
0.043964136 0.01324972 0.6912632
0.054010063 0.015403797 0.69423819
0.029300116 0.025635416 0.69800007
0.034182727 0.024261877 0.69382054
0.058128376 0.021154301 0.69200009
0.064957179 0.025124028 0.6940968
0.071765587 0.027472809 0.6978572
0.032180723 0.031810399 0.69111109
0.068541504 0.031630963 0.69083339
0.074892037 0.035459585 0.69400001
0.081420496 0.038802031 0.69740009
0.078183144 0.041712239 0.69200009
0.084790401 0.045206327 0.69403571
0.092031404 0.048200957 0.69740003
0.088509068 0.05137812 0.69120008
0.095005199 0.05459201 0.69337922
0.10173334 0.05850888 0.69740009
0.099453025 0.06058865 0.69000006
0.10572716 0.064640142 0.69366676
0.11132656 0.068702549 0.69625002
0.1155728 0.074848734 0.6942414
0.1222202 0.077801704 0.69642866
0.11788757 0.080778711 0.69080001
0.1252901 0.083466619 0.69263643
0.13165966 0.088436358 0.69375002
0.13634591 0.093902007 0.69294751
0.14165258 0.097077429 0.69716674
0.14607084 0.10424662 0.69400007
0.15224598 0.10789932 0.6952858
0.15560463 0.11456729 0.69322729
0.16230452 0.11882352 0.69583338
0.15944342 0.12057905 0.69000006
0.16615874 0.12375125 0.69333339
0.17189498 0.12798247 0.69562501
0.16994174 0.13107736 0.69000006
0.17603734 0.13377675 0.69290483
0.18299718 0.13787131 0.69630003
0.17894031 0.14007594 0.69000006
0.18604209 0.14419207 0.69346154
0.19222051 0.14734083 0.69599998
0.19620834 0.15353391 0.69361115
0.20237027 0.1579266 0.6937778
0.20641519 0.16445896 0.6924783
0.21283856 0.16807353 0.6954
0.21641064 0.17354573 0.69291669
0.22215384 0.17697889 0.69681829
0.22570109 0.18505758 0.69466668
0.23286478 0.18856777 0.69677782
0.2288451 0.19103679 0.69125009
0.23549597 0.19413172 0.69260007
0.24270794 0.19789761 0.69610006
0.2389307 0.20006633 0.69000006
0.24609192 0.2035214 0.69285011
0.2523818 0.20737897 0.69400001
0.25686294 0.21308997 0.69299996
0.26291397 0.2178258 0.69515389
0.26725191 0.22376207 0.69322228
0.2733427 0.22724916 0.69575
0.27636039 0.23434842 0.69360006
0.28194392 0.2373154 0.69690907
0.2866497 0.24226059 0.69313639
0.29419741 0.24515377 0.69400001
0.30130073 0.24977487 0.69900006
0.2964209 0.25278291 0.6923334
0.30389437 0.25671053 0.6955294
0.30769297 0.26312941 0.69163638
0.31356287 0.2656298 0.69586372
0.31816122 0.27139488 0.69600004
0.036070172 -0.0033095605 0.70735002
0.043188136 -0.0025565589 0.70643759
0.029049208 0.0071131024 0.70833337
0.034465808 0.0048509357 0.70448577
0.045590471 0.002806819 0.70300001
0.053094368 0.0065760445 0.70616668
0.025706531 0.015645506 0.70678782
0.032333057 0.014448088 0.70240003
0.057360638 0.013262551 0.7038182
0.063876763 0.016356781 0.70613039
0.026253089 0.022692077 0.70200002
0.067656927 0.021327758 0.70242864
0.07468491 0.025828062 0.70550007
0.080503061 0.029852651 0.708
0.078278743 0.033077557 0.70185721
0.084749326 0.035703953 0.70600015
0.087340713 0.041270349 0.70262504
0.094295725 0.046072081 0.70552933
0.10050856 0.049858145 0.708
0.098894417 0.052486219 0.70200002
0.10440091 0.05581234 0.7065556
0.11143793 0.059174918 0.70900005
0.10799948 0.061247569 0.70333332
0.11455019 0.065055862 0.70427585
0.12099345 0.068553157 0.70720005
0.11813893 0.071326211 0.70120001
0.12546827 0.075291909 0.70483327
0.13137895 0.078382276 0.70850003
0.12873943 0.080771253 0.70250005
0.13391882 0.085565507 0.70611775
0.14071803 0.08999607 0.70900005
0.13888626 0.09118358 0.70233339
0.14560844 0.095484108 0.70499992
0.15139857 0.098401904 0.70850003
0.14810339 0.10131155 0.70200008
0.15484777 0.10468339 0.70540011
0.16090976 0.10871937 0.70800006
0.15862793 0.11215362 0.70300007
0.16461249 0.11538217 0.70520002
0.1719722 0.1187064 0.70866674
0.16867939 0.12064292 0.70350003
0.17445524 0.12482356 0.70595241
0.18053052 0.12988012 0.708
0.17823768 0.1310682 0.70200002
0.18513364 0.13457471 0.70574993
0.19141778 0.13891476 0.70700002
0.18941131 0.1415461 0.70100003
0.1954332 0.14469738 0.70462507
0.20165297 0.14856939 0.7076
0.19915491 0.15152086 0.70133334
0.20518541 0.15485166 0.70545459
0.21160668 0.15934367 0.70900005
0.20981592 0.16105123 0.70300001
0.21540853 0.16559477 0.70480001
0.22260489 0.16846828 0.70757145
0.22602636 0.17443004 0.70459092
0.23171777 0.17852712 0.70766664
0.22859105 0.18218394 0.70199996
0.23434991 0.18456604 0.70484608
0.24140139 0.18842316 0.70825005
0.23901637 0.19133754 0.70199996
0.24483642 0.19460002 0.70504546
0.25124824 0.19845548 0.70780009
0.24954434 0.20077966 0.70300001
0.25510648 0.20447965 0.70478266
0.26170915 0.20861082 0.70780003
0.25950012 0.21087414 0.70100003
0.26571348 0.21413353 0.70442319
0.27190283 0.21826063 0.70683336
0.2758033 0.22374865 0.70409518
0.28257447 0.22803394 0.70650005
0.28595307 0.23448616 0.70359999
0.29141167 0.23704016 0.70633334
0.29353395 0.24146867 0.70283341
0.30308473 0.24788234 0.70225
0.30666301 0.25420001 0.70355564
0.31234896 0.25672233 0.70558822
0.3170321 0.26304322 0.70300007
0.32288429 0.26688111 0.70663637
0.31998974 0.27143314 0.70000005
0.32639125 0.27327394 0.70727277
0.33180919 0.27646405 0.70900005
0.028618844 -0.010316162 0.71900004
0.03459597 -0.012968238 0.71553344
0.042279046 -0.010917453 0.71740001
0.0277825 -0.0038932045 0.71570003
0.033749633 -0.0067478912 0.71094126
0.045348525 -0.0058599049 0.71317643
0.052235577 -0.0022983083 0.71600002
0.019118978 0.0068205846 0.71440005
0.024479903 0.0049422234 0.71297443
0.031347074 0.00061558763 0.71000004
0.056690071 0.004572798 0.71277785
0.062132865 0.0089062778 0.71500009
0.018536715 0.01196478 0.71200007
0.023415212 0.012302351 0.71014291
0.066315748 0.01277182 0.71400005
0.072183527 0.017547939 0.7153334
0.077142596 0.02323761 0.71366674
0.082883656 0.027614867 0.71390003
0.086798437 0.031924482 0.7137273
0.093048446 0.037211258 0.71523082
0.096764892 0.043323521 0.7136668
0.10269025 0.04692873 0.71576923
0.10716186 0.052899074 0.71350008
0.11277149 0.05708136 0.71499997
0.11754753 0.06193351 0.71240008
0.1229154 0.066166453 0.71557146
0.12656361 0.071555182 0.71260005
0.13436937 0.076663651 0.71483332
0.13748379 0.083926566 0.71246666
0.14330341 0.085695922 0.7162174
0.14674586 0.091471583 0.71300006
0.15324746 0.09611845 0.71492302
0.15805385 0.10166971 0.7137143
0.16365084 0.10628323 0.71492863
0.16720678 0.11221403 0.71187502
0.17388026 0.11612325 0.71438885
0.18020982 0.11939569 0.71900004
0.1780414 0.12275056 0.71220005
0.18429655 0.12668733 0.71527278
0.18718655 0.13163885 0.71157151
0.19342306 0.13600531 0.71407694
0.19853176 0.14207676 0.71325004
0.20436443 0.14643373 0.71419996
0.20830211 0.15139256 0.71200001
0.21354 0.15583479 0.71447617
0.21736492 0.16239089 0.71318185
0.22443503 0.16613483 0.71405888
0.22827023 0.17126371 0.7105
0.23417976 0.17654194 0.71384621
0.23821719 0.18271376 0.71100003
0.24385019 0.18563315 0.71531582
0.25053552 0.18972139 0.71900004
0.2482962 0.1929853 0.7118333
0.25327858 0.19555978 0.71608335
0.25820684 0.20133594 0.71428573
0.26470569 0.20608529 0.71468186
0.27085182 0.2084749 0.71900004
0.26821488 0.21031202 0.71200001
0.27424571 0.215321 0.71494454
0.27840593 0.22068007 0.713
0.28486556 0.22514956 0.71515006
0.29154238 0.22925225 0.71800005
0.2890667 0.23055705 0.71000004
0.29514849 0.23400685 0.71404767
0.30140242 0.23713924 0.71825004
0.30300543 0.24401154 0.71585721
0.3091287 0.25061905 0.71000004
0.31546542 0.254318 0.7129091
0.32097101 0.25716472 0.71750003
0.32602018 0.26506791 0.71244454
0.33146653 0.26897818 0.71574998
0.3291907 0.27222431 0.71000004
0.33473811 0.27468324 0.71360004
0.34198865 0.27880338 0.71633339
0.026296398 -0.024716904 0.72687513
0.033506937 -0.024497641 0.72588456
0.040053565 -0.021521783 0.72800004
0.019106884 -0.011644452 0.72875005
0.024828868 -0.015256819 0.72543907
0.035178572 -0.018205523 0.7218948
0.044734593 -0.014268685 0.72459084
0.051887199 -0.01043812 0.72750002
0.017963246 -0.0051358603 0.72688246
0.023062587 -0.0055815452 0.7221905
0.047879994 -0.0083834333 0.72075003
0.054916542 -0.0052223736 0.7242381
0.061152358 -0.0014793376 0.72799999
0.018537171 0.0018002605 0.722
0.020862749 0.0006251249 0.72100002
0.058968741 0.0021898029 0.72066671
0.064685561 0.0050610867 0.72431821
0.071006902 0.0077624419 0.72900003
0.068985932 0.010559619 0.72166663
0.075589314 0.014609487 0.72460008
0.081648625 0.01907404 0.72733337
0.078846946 0.020997951 0.72100002
0.084845714 0.024208099 0.7234118
0.091488868 0.028116187 0.72680008
0.089816928 0.030400794 0.72100002
0.096122093 0.034396026 0.72352386
0.10212458 0.037597075 0.72555566
0.10614906 0.043870214 0.72354549
0.11244173 0.047927458 0.72540009
0.11577985 0.054063283 0.72310007
0.12214755 0.057307288 0.72687501
0.11881012 0.060176466 0.72100008
0.12612161 0.064259447 0.72404355
0.13225055 0.067653038 0.72636372
0.12881653 0.071047768 0.72000003
0.13623819 0.072773866 0.72338897
0.1430168 0.07703276 0.72423083
0.14733098 0.084067352 0.72223079
0.15240225 0.086839683 0.72612506
0.15644655 0.093580917 0.7236501
0.16202246 0.096823715 0.72663641
0.16678433 0.10364707 0.72366673
0.1730772 0.10761519 0.72622228
0.16950567 0.11017194 0.72000003
0.176208 0.11281748 0.72381252
0.18301967 0.1170087 0.72584623
0.18649027 0.12252615 0.72299999
0.19293454 0.12707849 0.72528583
0.19655634 0.13320957 0.72264719
0.20257242 0.13654663 0.7259286
0.19951677 0.14010063 0.72100002
0.20610425 0.1429958 0.72333336
0.2122357 0.14693798 0.72454554
0.21713646 0.15267886 0.72183341
0.22250573 0.15672991 0.72483331
0.22584426 0.16286875 0.72264707
0.23259749 0.16686314 0.72533339
0.23673531 0.17361954 0.72317654
0.24293603 0.17711864 0.72586668
0.24731085 0.18324894 0.72266674
0.25293192 0.1861587 0.72531247
0.2568382 0.19385204 0.72276473
0.26393262 0.19749756 0.72552633
0.27148005 0.19938822 0.72766668
0.26664153 0.20209326 0.72226673
0.27296385 0.2047376 0.72460002
0.27757859 0.21339259 0.72350007
0.28424907 0.21743636 0.72421056
0.28703135 0.22215806 0.72145456
0.29346308 0.22583671 0.72405261
0.29804876 0.2318836 0.72280008
0.30460313 0.23492841 0.72347832
0.31136096 0.23890872 0.72600001
0.3071003 0.24453542 0.72253841
0.31305271 0.2461462 0.72666669
0.31626761 0.25200447 0.72368759
0.32374981 0.25525576 0.72488886
0.33007741 0.25891027 0.72900003
0.32905418 0.26142925 0.72500002
0.33500576 0.26587451 0.72565228
0.34116909 0.26841748 0.72900003
0.3381826 0.27218971 0.7215001
0.34403083 0.27586135 0.72485
0.3481535 0.2812686 0.72266668
0.35332635 0.28235295 0.72700006
0.019232986 -0.032005783 0.73866671
0.025790464 -0.034746207 0.73650014
0.033731323 -0.033391811 0.7357223
0.017177448 -0.02392628 0.73634613
0.022502698 -0.027075648 0.73191667
0.037145253 -0.028044011 0.73299998
0.043215919 -0.023354346 0.73582351
0.015286211 -0.014984367 0.73264521
0.047742497 -0.016939117 0.73500007
0.05407973 -0.013024872 0.73653334
0.014175072 -0.0076367958 0.73179996
0.058386639 -0.0078638354 0.73300004
0.0638474 -0.0034968609 0.73624998
0.067229062 0.0016303153 0.73312503
0.073661573 0.005437592 0.73641175
0.077453114 0.010603606 0.73374999
0.084609464 0.015601338 0.73564011
0.090452977 0.019112773 0.73900002
0.088124275 0.022539631 0.73300004
0.094898313 0.025852088 0.73609531
0.10218638 0.029004743 0.73866671
0.098523282 0.031365398 0.73133332
0.10563083 0.034636643 0.73495245
0.11217721 0.038185336 0.73820007
0.10868879 0.040410906 0.73200005
0.11516949 0.044111378 0.73561913
0.12212563 0.048133738 0.73820001
0.11881999 0.05103993 0.73233336
0.12547797 0.054329351 0.73527998
0.13164411 0.058674574 0.73759997
0.12901895 0.060927626 0.73000002
0.13524514 0.064725511 0.73411125
0.14085945 0.068813741 0.73800004
0.14593264 0.074310377 0.73580003
0.15219167 0.079294011 0.7385
0.14964607 0.081554756 0.73000002
0.15556699 0.0851188 0.73505878
0.16211474 0.088463314 0.73800004
0.16583399 0.094249405 0.73476189
0.17107056 0.097954728 0.73800009
0.16937974 0.1010086 0.73300004
0.17549583 0.104688 0.73473692
0.18271039 0.10857397 0.73750001
0.17820673 0.1101154 0.73000002
0.18558511 0.11390205 0.73533338
0.19071485 0.11781719 0.7385
0.19549201 0.12463637 0.73533338
0.20181599 0.12896717 0.73800004
0.20558193 0.1340782 0.73492312
0.21063742 0.13859171 0.73800004
0.20863949 0.14045489 0.73100001
0.21546771 0.14453742 0.73517656
0.221064 0.14901829 0.73800004
0.22590864 0.15490231 0.73550004
0.23164742 0.15874977 0.7385
0.22960855 0.16133069 0.73200005
0.23499849 0.16467196 0.73546147
0.24143274 0.16944921 0.7373333
0.23882814 0.17064354 0.73100001
0.24611183 0.17373446 0.73463637
0.25173923 0.17721309 0.73757142
0.25617746 0.18390165 0.73436362
0.26081133 0.18886322 0.73700005
0.26617181 0.19510184 0.73390919
0.27449143 0.19797066 0.73573339
0.27792168 0.20371991 0.73283339
0.28199553 0.20607419 0.73736364
0.27975568 0.21166436 0.73000002
0.28583127 0.21408163 0.73593754
0.29369041 0.21856518 0.7367
0.29712042 0.22293577 0.73370004
0.30120772 0.22576526 0.73757142
0.30510956 0.23144826 0.7349
0.31025848 0.23355672 0.73650002
0.31773812 0.24551925 0.73160005
0.32398933 0.24862295 0.73555559
0.32659042 0.25245067 0.73326665
0.33275041 0.25654605 0.7355001
0.33764234 0.2628381 0.73354548
0.34420419 0.26548186 0.73662513
0.34763032 0.27308071 0.73260003
0.35291281 0.2760959 0.73656255
0.3568162 0.28200549 0.73363632
0.36323953 0.28445414 0.736
0.025088474 -0.045252636 0.74385291
0.032370199 -0.042554837 0.74533337
0.015144368 -0.035208561 0.74413884
0.02302579 -0.038774047 0.74016666
0.035553101 -0.03738112 0.74323076
0.042343259 -0.031458933 0.74599999
0.012637498 -0.026090857 0.74184209
0.046356045 -0.025835127 0.7427333
0.053351603 -0.022265129 0.74573338
0.055847794 -0.016730256 0.74241179
0.062072709 -0.013200745 0.74536365
0.066682361 -0.0060067554 0.74258822
0.073244572 -0.0025961138 0.74530005
0.077139825 0.0033730608 0.74284619
0.082741231 0.007326276 0.74550009
0.086987734 0.011451863 0.74230009
0.093191899 0.016705384 0.74435717
0.097081155 0.022120327 0.74300003
0.10393807 0.026423493 0.74425006
0.11444075 0.035759259 0.74287504
0.1189808 0.04217286 0.74060005
0.12453154 0.04531718 0.74406248
0.12887377 0.051130325 0.74133331
0.13387372 0.055879436 0.74407697
0.13798854 0.061638702 0.74240005
0.14778826 0.071377233 0.74300009
0.1545461 0.076447099 0.74364996
0.15803941 0.083032034 0.74083334
0.16881245 0.091642037 0.74100006
0.17731433 0.10170867 0.74142849
0.18866992 0.11144581 0.74150002
0.2184236 0.14261127 0.74083334
0.24981074 0.17113604 0.74000001
