# .PCD v0.7 - Point Cloud Data file format
VERSION 0.7
FIELDS x y z
SIZE 4 4 4
TYPE F F F
COUNT 1 1 1
WIDTH 743
HEIGHT 1
VIEWPOINT 0 0 0 1 0 0 0
POINTS 743
DATA ascii
0.0791834 0.59468281 -0.2402211
0.085714906 0.59292269 -0.24112904
0.095857874 0.59260237 -0.24200541
0.10599642 0.59579206 -0.24356374
0.11026416 0.59915185 -0.24140042
0.098765805 0.60930336 -0.24030206
0.10722918 0.60761327 -0.24161911
0.11061216 0.60277277 -0.24242322
0.037414413 0.58909178 -0.23068097
0.045312632 0.58887261 -0.23137276
0.055983435 0.58852905 -0.23138857
0.065318123 0.58845127 -0.23215826
0.075011872 0.58911377 -0.2330036
0.080643341 0.58991766 -0.23389359
0.039655499 0.59003448 -0.2320291
0.046462268 0.59097856 -0.23339953
0.054813754 0.59152985 -0.23397836
0.065535039 0.59202272 -0.23610453
0.075079329 0.59268069 -0.23812763
0.085399382 0.59125865 -0.23522162
0.095301844 0.59375447 -0.23445302
0.10484212 0.59694642 -0.2354178
0.11019568 0.59918201 -0.23864648
0.067485318 0.60704201 -0.23131615
0.074765213 0.60548592 -0.2323021
0.085441776 0.60575855 -0.23301168
0.095279723 0.60706848 -0.23464449
0.10565982 0.60564584 -0.23446205
0.11038991 0.60241562 -0.23780867
0.027876714 0.5793432 -0.22048746
0.036129195 0.57907099 -0.22124599
0.042182494 0.5793674 -0.22120859
0.0060827499 0.58248776 -0.22075035
0.015760476 0.58295041 -0.22195549
0.025319658 0.58406508 -0.22425178
0.034912802 0.58444375 -0.22588974
0.04504136 0.58373839 -0.22573394
0.054818016 0.58530843 -0.22482495
0.065288469 0.58763731 -0.22497395
0.073429093 0.58896029 -0.22701226
0.068188049 0.59085554 -0.2206693
0.076304711 0.59341472 -0.22294213
0.084476523 0.59576708 -0.22544256
0.094346948 0.59732449 -0.22794802
0.10132142 0.59934878 -0.22949576
0.037681602 0.60970056 -0.2203345
0.046700548 0.60880238 -0.22351035
0.055540629 0.60652989 -0.22388919
0.065079249 0.60473263 -0.22508223
0.074508883 0.6029008 -0.22465318
0.084474199 0.60254616 -0.22581445
0.095029995 0.6028055 -0.22774041
0.10234239 0.60258025 -0.22917995
0.1152909 0.60959643 -0.22029772
0.11601232 0.61181021 -0.22135863
0.12509042 0.61458933 -0.22113487
0.13150948 0.61574799 -0.2205494
-0.012453893 0.56932712 -0.21149857
-0.007758256 0.5694207 -0.21256417
-0.0205596 0.57162189 -0.2103858
-0.017930551 0.5705657 -0.21067916
-0.0029020172 0.57258779 -0.21561763
0.004971548 0.57481343 -0.21510492
0.014969153 0.57575119 -0.2150183
0.024915384 0.57650107 -0.21539775
0.034895286 0.57761353 -0.21489125
0.042775221 0.57896638 -0.21650419
0.0065064006 0.5804764 -0.21952072
0.014426193 0.58046097 -0.21948965
0.021215901 0.58003932 -0.2196648
0.039205398 0.58048201 -0.2100585
0.04666939 0.58333415 -0.21334304
0.053479601 0.5866946 -0.21670997
0.061511684 0.58939248 -0.21952347
0.047797658 0.59388322 -0.2112152
0.054643549 0.59532911 -0.21418102
0.065028243 0.59518093 -0.21768041
0.07271944 0.59693587 -0.21896498
0.087023102 0.59976673 -0.21049014
0.090750448 0.59995121 -0.21033561
0.0081795752 0.60500181 -0.21031657
0.015932143 0.60649002 -0.21188892
0.0251504 0.60866362 -0.21321602
0.03477896 0.60911852 -0.21515937
0.045076739 0.60909808 -0.21619245
0.056320935 0.60522586 -0.21594825
0.064585239 0.60408574 -0.21473879
0.074684449 0.60435116 -0.2140649
0.084684066 0.60483795 -0.21396193
0.09519539 0.60442483 -0.21384363
0.10510632 0.60533094 -0.21458723
0.11494596 0.60610068 -0.21518864
0.12485562 0.60843396 -0.2152264
0.13018906 0.60978258 -0.21507365
0.046851888 0.610663 -0.21134427
0.055272844 0.61213297 -0.21214204
0.065178372 0.61353081 -0.21196362
0.074807636 0.61366332 -0.21277647
0.084672458 0.61423385 -0.21321297
0.095292307 0.61426139 -0.21412459
0.10510001 0.61492127 -0.21530426
0.11422302 0.61726511 -0.21609159
0.12556626 0.61571896 -0.21834457
0.1341617 0.61484396 -0.21538675
0.11928367 0.62013406 -0.21327835
0.12574798 0.62129378 -0.2148041
0.13177167 0.62110013 -0.21424286
-0.067479499 0.55989021 -0.2000702
-0.072398409 0.56404883 -0.20043783
-0.065063111 0.56510019 -0.20119032
-0.056156766 0.56655723 -0.20082092
-0.01192825 0.56981409 -0.20898029
-0.0081450148 0.56974214 -0.20870812
-0.062574454 0.57056576 -0.20036423
-0.054673351 0.57159603 -0.20032611
-0.044483107 0.57676977 -0.20068607
-0.034744944 0.57529521 -0.20179656
-0.024101794 0.57300717 -0.20443569
-0.016186668 0.57287097 -0.2059315
-0.0045222375 0.57115048 -0.20443736
0.0052821869 0.57324296 -0.20437005
0.01510929 0.57551855 -0.20462164
0.024394728 0.5777297 -0.20543401
0.032184996 0.57902139 -0.20814553
-0.046051029 0.58068955 -0.20071776
0.027073732 0.58086586 -0.20133209
0.035875216 0.5841772 -0.20424895
0.042552676 0.58613199 -0.20836762
0.0397266 0.59003669 -0.2019266
0.045087978 0.59323943 -0.20577547
0.054765549 0.59601206 -0.20478937
0.064672813 0.59836304 -0.20443796
0.075257733 0.59837478 -0.20533922
0.084968388 0.59864813 -0.20494281
0.091520347 0.59961861 -0.2068212
-0.0015466941 0.60837603 -0.20273151
0.0053131143 0.60769916 -0.20484805
0.014371911 0.60827202 -0.20630108
0.023632355 0.6094048 -0.20850807
0.032785226 0.60994214 -0.20924644
0.058061466 0.60047811 -0.2094928
0.063805081 0.60052627 -0.20921271
0.088993259 0.60028923 -0.20100598
0.09578938 0.6024189 -0.20438677
0.10499791 0.60512096 -0.20472009
0.11469969 0.60709465 -0.20520465
0.12241928 0.6090982 -0.20793371
-0.0019720201 0.61036551 -0.20019779
0.0054254751 0.61016268 -0.20004299
0.016143395 0.61074477 -0.20158622
0.025391897 0.61186707 -0.20371923
0.035336837 0.61319351 -0.20432276
0.044855125 0.61508292 -0.20491825
0.054657646 0.61754161 -0.20538628
0.065109156 0.61841023 -0.20526309
0.075057521 0.61780441 -0.20483981
0.084764659 0.61723083 -0.20453227
0.095114321 0.61688101 -0.20499833
0.10486621 0.61712277 -0.20461333
0.1155625 0.61634451 -0.20366085
0.12510066 0.61470419 -0.20431983
0.13268377 0.61595333 -0.20742786
0.055047199 0.62003362 -0.20062819
0.12624285 0.6206612 -0.20780198
0.13119727 0.62060368 -0.20883194
-0.094932444 0.55495828 -0.19306764
-0.084928118 0.55484074 -0.19418345
-0.07489007 0.55458325 -0.19547674
-0.065074719 0.55545825 -0.19502962
-0.056081425 0.55786484 -0.19293262
-0.049048848 0.55942076 -0.19047347
-0.094435535 0.56492275 -0.19563963
-0.084839836 0.56504071 -0.19739309
-0.076357521 0.56580812 -0.1991373
-0.06286367 0.56211436 -0.1996842
-0.05364415 0.5624128 -0.19749986
-0.045208607 0.56518513 -0.19492739
-0.039171126 0.56858271 -0.19238152
-0.095223852 0.57536447 -0.19475716
-0.085063651 0.57526702 -0.19612065
-0.075005762 0.57511944 -0.19695355
-0.06521406 0.57516342 -0.19835328
-0.055322103 0.57648855 -0.19902965
-0.044706635 0.57375693 -0.19913079
-0.035241906 0.57239234 -0.19551045
-0.025053022 0.57218349 -0.19512312
-0.015022018 0.57289165 -0.19479154
-0.0046470934 0.57459223 -0.19480315
0.0036507288 0.57735091 -0.19658002
0.013696432 0.57906908 -0.19943389
-0.094613217 0.58174402 -0.19356115
-0.086238891 0.58140254 -0.1953833
-0.074245609 0.5809775 -0.19581376
-0.064481795 0.58323503 -0.19626425
-0.05664051 0.58235288 -0.19728461
-0.049373597 0.58026254 -0.19977081
0.0069505908 0.58200306 -0.19335808
0.014803196 0.58387804 -0.19471906
0.025062732 0.58463997 -0.19517957
0.034496233 0.58793908 -0.19534513
0.043293327 0.58971316 -0.19563809
0.046507362 0.59084064 -0.19433177
0.055272844 0.5940364 -0.1947884
0.063619688 0.59801531 -0.19731754
0.074588738 0.59925938 -0.19933033
0.081531972 0.59970993 -0.19935901
0.055959303 0.60547286 -0.19174686
0.064944454 0.60474235 -0.19508836
0.074867606 0.60459995 -0.19649513
0.085012563 0.60528195 -0.19626722
0.094548792 0.60627133 -0.1975522
0.10363121 0.60877794 -0.19887798
0.1100168 0.60967851 -0.1998959
-0.014446715 0.61393481 -0.19294299
-0.0045220242 0.61374754 -0.19470027
0.0051165447 0.61395657 -0.19470002
0.014888521 0.61522979 -0.19494094
0.024468582 0.61691594 -0.19614957
0.034127709 0.61831087 -0.19797973
0.043137286 0.61951721 -0.19919632
0.05605758 0.61501253 -0.19257367
0.064127102 0.61569363 -0.19670145
0.075118288 0.61318296 -0.19777639
0.0846854 0.61296219 -0.19744639
0.09467563 0.61323637 -0.19737747
0.10417856 0.61288029 -0.19840093
0.1107472 0.61196351 -0.1995247
0.019247467 0.6203928 -0.190494
0.025960207 0.62100035 -0.19167331
0.035427671 0.62180185 -0.19323803
0.045124404 0.62245595 -0.19449069
0.055636238 0.62275898 -0.19501871
0.064108223 0.62369192 -0.19135077
0.072127484 0.62427974 -0.19010668
-0.095053755 0.54728061 -0.18474905
-0.084946483 0.54796332 -0.18477881
-0.074837118 0.54860967 -0.18510313
-0.067694567 0.54934984 -0.18398935
-0.093582749 0.55035996 -0.18947281
-0.086303055 0.55022639 -0.18958502
-0.070321903 0.5500977 -0.1897749
-0.063143551 0.55106807 -0.18583269
-0.05495235 0.55395836 -0.18532251
-0.046304729 0.55757332 -0.18443789
-0.041806534 0.56168097 -0.18644325
-0.038121127 0.56634945 -0.18448786
-0.033360541 0.5724957 -0.18490192
-0.025232922 0.57581359 -0.18473113
-0.015188551 0.57670367 -0.18601277
-0.0055407551 0.57813382 -0.18678911
0.0012244876 0.57958454 -0.18834746
-0.022910157 0.58090216 -0.18092175
-0.015435896 0.5810203 -0.18126057
-0.004095573 0.5809446 -0.18191817
0.0054181642 0.58280444 -0.18474755
0.014559698 0.58735001 -0.18501315
0.02405368 0.5888142 -0.18735579
0.033490621 0.58963102 -0.18916696
0.026066961 0.59251243 -0.18288252
0.035173722 0.5941776 -0.18428206
0.04492563 0.59538376 -0.18530834
0.051818538 0.59742063 -0.18871188
-0.091790751 0.60678923 -0.18182144
-0.08521194 0.60708106 -0.18328272
-0.075766139 0.60801089 -0.18235601
-0.067697622 0.60957748 -0.18239559
0.048927758 0.60521758 -0.18440817
0.051279187 0.6047343 -0.18695301
-0.070609003 0.61003733 -0.1808487
-0.064353965 0.61151242 -0.18140329
-0.0553503 0.61557394 -0.18113758
-0.04438296 0.61501491 -0.18267417
-0.034688372 0.61359525 -0.18459326
-0.025056833 0.6156162 -0.18413934
-0.015353486 0.61758745 -0.18536811
-0.0056418437 0.61840856 -0.18763344
0.0043268143 0.61909229 -0.18900223
0.01082835 0.61959743 -0.1896798
0.049503736 0.61184818 -0.18696699
0.054543175 0.61416638 -0.18524095
0.064715005 0.61617911 -0.18421768
0.074922651 0.61734807 -0.18312952
0.084916763 0.61701858 -0.18357179
0.095264502 0.61707109 -0.18325393
0.10486226 0.61755973 -0.18241294
0.11403418 0.61923867 -0.18181315
0.1210766 0.61990368 -0.18058176
-0.012014699 0.62026399 -0.1808259
-0.0042022686 0.62097782 -0.18266231
0.0053348653 0.62219012 -0.18414558
0.014927833 0.62336868 -0.18511161
0.024957092 0.62454772 -0.185091
0.035120565 0.62597215 -0.18482038
0.04462387 0.62716269 -0.18526313
0.054490939 0.62763458 -0.18710098
0.065891773 0.62593067 -0.18831311
0.074993946 0.62505019 -0.18851556
0.084919155 0.62467897 -0.18835188
0.094791204 0.62487304 -0.18731046
0.10485408 0.62470609 -0.18562363
0.11520479 0.62481159 -0.18569241
0.12510781 0.62388015 -0.18484548
0.13477154 0.62513447 -0.18469837
0.14514257 0.62603527 -0.18425813
0.15171215 0.62815464 -0.18288504
0.046885125 0.63083178 -0.18098134
0.055619821 0.63192225 -0.18258464
0.065099768 0.63266873 -0.1837651
0.074981153 0.63307625 -0.18353102
0.084832333 0.63253093 -0.18379298
0.095131762 0.63228971 -0.18335733
0.10466886 0.63146925 -0.18297333
0.11513917 0.63177228 -0.18289183
0.12535599 0.63319373 -0.18359686
0.13521634 0.63445699 -0.18466534
0.14571117 0.63501644 -0.18533447
0.15247752 0.63373965 -0.18287997
-0.095044896 0.54559398 -0.17507388
-0.084980413 0.54755914 -0.17457597
-0.075958937 0.54907727 -0.17606781
-0.068546802 0.54981011 -0.17877065
-0.072865427 0.55070359 -0.17257571
-0.064719617 0.55195314 -0.17486577
-0.055011686 0.55447024 -0.17486295
-0.045200501 0.55759352 -0.17527752
-0.040557969 0.56038803 -0.17465374
-0.037337489 0.56506252 -0.17485261
-0.032833867 0.57480502 -0.17535318
-0.029179782 0.57890147 -0.17932765
-0.030848343 0.58268064 -0.17297669
-0.025387609 0.58484417 -0.1753622
-0.015040199 0.58531058 -0.17500693
-0.0049535818 0.58465385 -0.17509048
0.0051633497 0.58639956 -0.17494577
0.013468847 0.58841097 -0.17596363
0.017216267 0.59113646 -0.17344156
0.025147684 0.59549367 -0.17526102
0.032948881 0.59930658 -0.1771618
0.042533211 0.59948164 -0.17927729
-0.095186286 0.60791236 -0.17709163
-0.085123211 0.60912752 -0.17811973
-0.077687941 0.60958886 -0.17927735
0.035967804 0.60111457 -0.17404178
0.045708165 0.60231113 -0.17515996
0.055007968 0.60625595 -0.17551816
0.06231229 0.60830945 -0.17408806
-0.094491713 0.6111232 -0.17208928
-0.084824108 0.6119616 -0.17345123
-0.074574098 0.61289358 -0.17484967
-0.064774834 0.61513859 -0.17512754
-0.055307947 0.61825532 -0.17542517
-0.045256604 0.61714327 -0.17485711
-0.034732662 0.61656016 -0.17518257
-0.026290357 0.61873102 -0.17604212
-0.01813684 0.61981714 -0.17924993
0.057031702 0.61022538 -0.1797137
0.066883594 0.61234558 -0.17496878
0.074814297 0.61510915 -0.17457369
0.084726915 0.61447465 -0.17457634
0.095163658 0.61454701 -0.1747244
0.10450818 0.61698705 -0.17533059
0.11473443 0.61958569 -0.17875408
0.12074645 0.6198833 -0.17962059
-0.022798626 0.62076914 -0.17280892
-0.014755736 0.62168807 -0.17481868
-0.0049614836 0.62328297 -0.1749386
0.0050023976 0.62533355 -0.17510054
0.014822447 0.62741733 -0.17534064
0.024344129 0.62889814 -0.17568384
0.033354446 0.62928766 -0.17857355
0.076641388 0.62927514 -0.17061853
0.083615415 0.6292938 -0.17051362
0.1084043 0.62103188 -0.1719052
0.11501174 0.62166381 -0.17383832
0.12551525 0.62225527 -0.17421968
0.13457946 0.62473029 -0.1749693
0.14569549 0.62621915 -0.17450358
0.15160559 0.62785226 -0.1761588
0.028424283 0.63056242 -0.17191125
0.035628982 0.63136691 -0.1741641
0.045010056 0.63273078 -0.17513821
0.055087604 0.63449752 -0.17522529
0.065441236 0.63466918 -0.17449853
0.074915521 0.63362467 -0.17468229
0.084760584 0.63311476 -0.17485456
0.095043138 0.63289535 -0.17470579
0.10508871 0.63259983 -0.17510657
0.11553873 0.63308561 -0.17469423
0.12513946 0.63448524 -0.17460825
0.13496979 0.63603592 -0.17453808
0.14590438 0.6372031 -0.17442121
0.152263 0.63433015 -0.17562056
-0.095026612 0.54738033 -0.16478457
-0.086000897 0.54891872 -0.16636834
-0.079220898 0.54979646 -0.16954015
-0.083469443 0.55091161 -0.16253698
-0.074884728 0.55257708 -0.16474149
-0.06486772 0.55494386 -0.16484903
-0.055106301 0.5573594 -0.16491745
-0.046691921 0.55901587 -0.16715673
-0.05079037 0.56054562 -0.16047828
-0.04354601 0.56175303 -0.16366793
-0.037651066 0.56633574 -0.16535416
-0.034213085 0.57483709 -0.16499555
-0.031629864 0.58448511 -0.16463484
-0.026668003 0.58905321 -0.16715515
-0.01459207 0.58902508 -0.1676861
-0.0050376919 0.58881342 -0.16753456
0.0029836884 0.58925778 -0.16873725
-0.024163153 0.59078103 -0.16337918
-0.015520246 0.59088987 -0.16271891
-0.0047962377 0.59131736 -0.16262956
0.0055117854 0.59273672 -0.16395786
0.014904771 0.5950895 -0.16499114
0.024394374 0.59773052 -0.1659527
0.030655686 0.59961259 -0.16786489
0.026466066 0.60095412 -0.16150475
0.035120893 0.6024273 -0.16441353
0.045088019 0.6051302 -0.16465744
0.054646153 0.60710233 -0.16575681
0.06148399 0.60876143 -0.1682965
-0.095060706 0.61376458 -0.16524486
-0.085224085 0.61511767 -0.16533436
-0.074970268 0.61658949 -0.16536526
-0.065010481 0.61851007 -0.16528769
-0.054492161 0.61980897 -0.16641258
-0.044967968 0.61713028 -0.16516566
-0.035123795 0.61639154 -0.16547267
-0.028627248 0.61938775 -0.16440605
0.057743158 0.61319214 -0.1617763
0.063947499 0.61526394 -0.16642058
0.075897284 0.6186443 -0.16927028
0.084981941 0.61784238 -0.16830815
0.094705008 0.6179378 -0.1678406
0.1021494 0.61899936 -0.1687987
-0.055525072 0.62018478 -0.16396987
-0.023968194 0.62111717 -0.16506419
-0.014902928 0.62351274 -0.1649231
-0.0049318159 0.62594122 -0.16504575
0.0049435613 0.62785983 -0.16509701
0.014329645 0.62909985 -0.16653368
0.021183521 0.62968838 -0.16892827
0.059791598 0.62059349 -0.16039264
0.064221725 0.6251865 -0.16550013
0.075006492 0.62459493 -0.16861364
0.085138328 0.62489694 -0.16712856
0.094907284 0.62606192 -0.16478813
0.10485715 0.62505585 -0.16556561
0.11471266 0.62652463 -0.16672814
0.12461942 0.62720287 -0.16770749
0.13460085 0.62808233 -0.16901936
0.14389634 0.62904859 -0.16934957
0.016376568 0.63090378 -0.16202907
0.025316784 0.63190258 -0.16445749
0.035063501 0.63448364 -0.16461307
0.044778485 0.63668406 -0.16522348
0.054604404 0.63755918 -0.16687502
0.065118864 0.63482422 -0.16536333
0.075387083 0.63571817 -0.16262503
0.085140929 0.63507217 -0.16305241
0.095134623 0.63405597 -0.16384305
0.10501797 0.63395524 -0.16380157
0.11534439 0.63321459 -0.16373189
0.12455636 0.63410348 -0.16395673
0.13489184 0.63535434 -0.16481823
0.14445236 0.63303155 -0.16865443
0.047629092 0.6407721 -0.16086963
0.055703472 0.64215529 -0.16233
0.064926371 0.64264983 -0.1631113
0.074508443 0.64204872 -0.161575
0.084271468 0.64102912 -0.16121019
0.091069147 0.64014131 -0.16034845
0.12782626 0.64155298 -0.16113003
0.13599043 0.64252704 -0.16152373
0.14041866 0.64132673 -0.16067858
-0.096918933 0.54935831 -0.15849401
-0.094612971 0.55267739 -0.15401524
-0.085022561 0.55480659 -0.1548845
-0.075383931 0.55712718 -0.15562943
-0.065603346 0.55840057 -0.15762076
-0.058107287 0.55942845 -0.15896007
-0.073000677 0.56102991 -0.15116276
-0.064317241 0.56243408 -0.15281494
-0.054737538 0.56367964 -0.15459833
-0.04517287 0.56610459 -0.15541965
-0.03882172 0.56851143 -0.15803486
-0.041927099 0.57142276 -0.15132511
-0.036674138 0.57527602 -0.15515964
-0.033370711 0.58514082 -0.15450612
-0.029775999 0.58974624 -0.15791346
-0.031215409 0.59085667 -0.15099478
-0.025069732 0.59192353 -0.15460229
-0.014801141 0.59366506 -0.15457128
-0.0046994518 0.59564173 -0.15507185
0.0043332269 0.59762913 -0.15691096
0.013168229 0.59926063 -0.15916054
-0.00045339999 0.60008138 -0.15032759
0.0062582036 0.60266185 -0.15257722
0.014935289 0.60493684 -0.15452147
0.024761247 0.60573858 -0.15577823
0.034840055 0.60721093 -0.15614958
0.043844823 0.60851383 -0.15737465
0.050193999 0.60962129 -0.1598669
-0.094852112 0.61498761 -0.15496536
-0.085229933 0.61593902 -0.15472168
-0.07509055 0.61699677 -0.15504453
-0.065073974 0.61815661 -0.15491349
-0.05499775 0.61890191 -0.15499176
-0.046047729 0.61688632 -0.15510662
0.0194437 0.61010718 -0.1507287
0.024308631 0.61017889 -0.15062955
0.035374179 0.6105938 -0.1508469
0.04606133 0.61181802 -0.15326419
0.055427346 0.61539054 -0.15538013
0.060545146 0.6197682 -0.15343538
-0.055801101 0.62000638 -0.15883306
-0.022433264 0.62107354 -0.15903793
-0.014647719 0.62418497 -0.15802096
-0.004910775 0.62798023 -0.1571037
0.0032335052 0.62933129 -0.15857156
0.059888899 0.6206277 -0.1586709
0.064400733 0.62482393 -0.15541705
0.075171404 0.6276471 -0.15451573
0.08531215 0.62761784 -0.15533198
0.095168531 0.62804604 -0.15497889
0.10245005 0.62945032 -0.156104
-0.0014913222 0.6306504 -0.15337795
0.0055777431 0.63185269 -0.15388918
0.014887514 0.63369513 -0.15489566
0.025031846 0.63616872 -0.1551851
0.033496141 0.63856745 -0.15613627
0.041205537 0.63976234 -0.15945433
0.067972355 0.63085192 -0.15910015
0.074248701 0.63109499 -0.15905151
0.083733089 0.63020998 -0.15966822
0.096647836 0.63955051 -0.1590416
0.10592033 0.63337564 -0.15567622
0.11495355 0.63350809 -0.15627941
0.12504336 0.63334978 -0.15500599
0.13524589 0.63603616 -0.15518154
0.14111497 0.63888973 -0.15479031
0.037338611 0.64078468 -0.15333152
0.045213196 0.64249653 -0.15505017
0.05490388 0.64503241 -0.15524596
0.064786628 0.64612752 -0.15498501
0.074755661 0.6454224 -0.15509647
0.085203066 0.6441198 -0.1556367
0.094661579 0.64271736 -0.15489711
0.10489637 0.64192963 -0.15415429
0.11512134 0.64247936 -0.15451311
0.12505578 0.64348942 -0.15556026
0.13492981 0.64635342 -0.15511057
0.14190155 0.64315057 -0.1542113
-0.095498279 0.55764902 -0.14755502
-0.086522378 0.55906558 -0.14883858
-0.094554335 0.56384021 -0.14266255
-0.08502429 0.56475991 -0.14444463
-0.075349003 0.56545275 -0.14617395
-0.065497704 0.56722355 -0.14769478
-0.055757012 0.56877697 -0.14893992
-0.048778847 0.56958652 -0.1499469
-0.083266988 0.57132506 -0.14064401
-0.074335866 0.57288903 -0.14149246
-0.064740889 0.57461667 -0.14284495
-0.055119619 0.57485366 -0.14487791
-0.04526573 0.57542396 -0.14681756
-0.038930561 0.57807386 -0.14885563
-0.061792601 0.58089995 -0.14023699
-0.054174587 0.58252358 -0.14107096
-0.044409666 0.58460194 -0.14243656
-0.037526522 0.58570236 -0.14720781
-0.041933198 0.59468126 -0.14134474
-0.035496321 0.59529191 -0.14630027
-0.024965573 0.5968346 -0.14765975
-0.015299101 0.59800494 -0.14711364
-0.0067328755 0.59901696 -0.14804189
-0.095213376 0.60921395 -0.14096209
-0.085508958 0.60889971 -0.14072935
-0.077346317 0.6090554 -0.14110854
-0.041149776 0.6026389 -0.14101133
-0.035003852 0.60315132 -0.14309199
-0.025367901 0.60227782 -0.14259882
-0.014779985 0.60113454 -0.14194477
-0.0044258018 0.60237598 -0.14360856
0.0046607843 0.60625815 -0.14527896
0.011650129 0.60944945 -0.14871815
-0.094885707 0.61252922 -0.14574747
-0.084987499 0.61281621 -0.14526957
-0.074937508 0.61340755 -0.14580308
-0.065214328 0.61470032 -0.14686793
-0.055304013 0.61599976 -0.1479575
-0.046693504 0.61597884 -0.14856309
-0.0230365 0.61087728 -0.14000601
0.0098588997 0.61032099 -0.1418276
0.015024547 0.61126286 -0.14519593
0.025453754 0.61267114 -0.1447271
0.034826014 0.61479962 -0.1447679
0.044782851 0.61619806 -0.14515989
0.053879961 0.61788732 -0.14647014
0.028498374 0.62723505 -0.14165325
0.03494047 0.62508577 -0.14240195
0.042869035 0.62498647 -0.14110936
0.056764882 0.62239456 -0.14270554
0.063849308 0.62615001 -0.14554645
0.074972562 0.62777698 -0.14651361
0.085155725 0.627877 -0.14588051
0.094129503 0.6285429 -0.14699911
0.0074994634 0.63615113 -0.14854716
0.015023055 0.63825625 -0.14873882
0.025281783 0.63525277 -0.14506073
0.035238169 0.63485646 -0.14684618
0.045215189 0.63438171 -0.14341903
0.05469485 0.6356743 -0.14292178
0.064999595 0.63478059 -0.14327134
0.075291589 0.63491499 -0.14404115
0.085091241 0.63497841 -0.14240465
0.095399827 0.6344713 -0.14236309
0.10452717 0.63484091 -0.14445212
0.11493932 0.63497025 -0.14523059
0.12471738 0.63611889 -0.14549974
0.13489915 0.63790727 -0.14651705
0.14090817 0.63924235 -0.14848882
0.016197078 0.64338225 -0.1426633
0.021134183 0.64096999 -0.14181536
0.038380999 0.64049339 -0.1491638
0.045422938 0.6416685 -0.14757118
0.055122271 0.64289856 -0.14745125
0.065138578 0.64308906 -0.14777192
0.074851848 0.64281476 -0.14756861
0.085172869 0.64267832 -0.14693208
0.094905294 0.64238346 -0.14570947
0.10491695 0.64248806 -0.14556861
0.11561999 0.64287353 -0.14568235
0.12544452 0.64366722 -0.14551556
0.13520569 0.64406854 -0.14566544
0.14159326 0.64300418 -0.1477831
-0.096503824 0.56842303 -0.1389752
-0.094899938 0.57486069 -0.13620508
-0.085517682 0.57585675 -0.13796479
-0.07588657 0.57750189 -0.13890943
-0.068198897 0.57907814 -0.13969482
-0.094907753 0.58480585 -0.13293953
-0.084955849 0.58459282 -0.13478233
-0.074875735 0.58451945 -0.13629445
-0.065183446 0.58508945 -0.13780993
-0.055828352 0.587107 -0.1389274
-0.047897134 0.58894169 -0.13965175
-0.095127665 0.59523273 -0.13406613
-0.085164137 0.59467012 -0.13485809
-0.075185329 0.59537953 -0.1355197
-0.064912245 0.59505635 -0.13648579
-0.054956682 0.59484261 -0.13793184
-0.047120012 0.59491855 -0.13906409
-0.09467987 0.60417205 -0.13759741
-0.085792162 0.60427868 -0.137651
-0.07314118 0.60155308 -0.13623691
-0.0653501 0.60199726 -0.13744915
-0.055270057 0.60129923 -0.13868174
-0.045462601 0.60204464 -0.13957559
-0.032977391 0.60661036 -0.13949528
-0.023530487 0.60634691 -0.13906892
-0.015411477 0.60577601 -0.13836567
-0.004792464 0.6075092 -0.13857818
0.0038357377 0.60868877 -0.13807519
-0.021301566 0.61220223 -0.13843845
-0.014283255 0.61500877 -0.13711599
-0.0051985336 0.61514848 -0.13479544
0.0050250064 0.61181694 -0.13362594
0.014984061 0.61280328 -0.1346285
0.023923609 0.61644083 -0.13575406
-0.013142475 0.6213094 -0.13336366
-0.0072883195 0.62228674 -0.13117133
0.027133299 0.62480402 -0.13486686
0.0302506 0.62957549 -0.1302589
0.04547029 0.62630856 -0.13749684
0.054427803 0.62650865 -0.1383045
0.026859609 0.63517189 -0.13594085
0.031517938 0.63567901 -0.13154635
0.044757031 0.63276547 -0.13441296
0.054663323 0.63401675 -0.13542241
0.0607411 0.63121891 -0.13997521
0.0097494004 0.6459738 -0.13672957
0.014862006 0.64412862 -0.13491835
0.023721112 0.64156502 -0.13434689
0.031335998 0.64095515 -0.13072847
-0.001625165 0.61823577 -0.12825102
0.0051094303 0.61623251 -0.12578705
0.014735665 0.61705524 -0.12581038
0.02125291 0.61864465 -0.12845606
-0.002700805 0.62367815 -0.12808447
0.00024928182 0.62253046 -0.12464609
0.016940484 0.6217764 -0.12158033
0.025018511 0.62554109 -0.12510252
0.03076601 0.62955093 -0.12610355
0.035345685 0.63477725 -0.12509276
0.046900202 0.63837665 -0.12787925
0.051453382 0.63895059 -0.12956545
0.015886214 0.64630204 -0.12548317
0.024897749 0.64627451 -0.12539071
0.035272419 0.6452027 -0.1250165
0.040799793 0.64375412 -0.12119474
0.025978528 0.65066952 -0.12089858
0.033805881 0.65076673 -0.12085325
0.016226631 0.62460625 -0.11700922
0.024064483 0.62852716 -0.11524602
0.029102402 0.63049918 -0.11254871
0.0356813 0.6342873 -0.11497078
0.040384483 0.6392476 -0.11632942
0.018112279 0.64940828 -0.11899111
0.039809734 0.64102167 -0.11059213
0.043194298 0.64545614 -0.11505882
0.019237656 0.65059584 -0.11663053
0.024915027 0.65285617 -0.11747991
0.035773594 0.65497631 -0.11664702
0.04439244 0.65461642 -0.1135246
0.037447896 0.66170108 -0.11161818
0.0411079 0.66067201 -0.11066389
0.026532849 0.63370687 -0.10590939
0.033707988 0.63654131 -0.10595915
0.037473906 0.64244121 -0.10425115
0.044648148 0.64703667 -0.10503678
0.0506033 0.64973009 -0.1013527
0.04891878 0.65534002 -0.10855535
0.052283749 0.65542716 -0.1040386
0.037352357 0.6642828 -0.10614444
0.044889171 0.66258264 -0.10516451
0.051718518 0.66152173 -0.10218804
0.027980467 0.63911045 -0.098782077
0.031285569 0.63935536 -0.099638134
0.028940238 0.64115185 -0.095826864
0.035074834 0.64361459 -0.095928058
0.045551151 0.64670628 -0.094791889
0.050740834 0.64932203 -0.095972523
0.053414278 0.65483445 -0.094654799
0.038926382 0.6640681 -0.098151803
0.046140309 0.66523951 -0.095233612
0.052242849 0.66250449 -0.095240898
0.039480601 0.64558327 -0.089774899
0.045463245 0.64749414 -0.087402992
0.048425421 0.65397131 -0.085538819
0.051204663 0.65609181 -0.088439979
0.049154006 0.66313595 -0.088031635
0.050737597 0.66151035 -0.089162983
