# .PCD v0.7 - Point Cloud Data file format
VERSION 0.7
FIELDS x y z
SIZE 4 4 4
TYPE F F F
COUNT 1 1 1
WIDTH 1487
HEIGHT 1
VIEWPOINT 0 0 0 1 0 0 0
POINTS 1487
DATA ascii
0.883205 0.10839 -1.642225
0.81540877 0.11614124 -1.6424127
0.82500803 0.11504301 -1.64273
0.83356601 0.115388 -1.6448401
0.84544718 0.11706857 -1.6445572
0.85305005 0.11455601 -1.64334
0.86697 0.11217667 -1.6437334
0.87540376 0.1126425 -1.6435626
0.88257718 0.11352857 -1.6450143
0.76933002 0.12884 -1.6437
0.77666843 0.12777834 -1.6443834
0.78406 0.12524001 -1.64518
0.79239619 0.12363125 -1.6444249
0.80511749 0.1238525 -1.64485
0.81216747 0.1226925 -1.64625
0.82339162 0.12181833 -1.6474999
0.83496332 0.12067001 -1.6466999
0.845155 0.12079 -1.64845
0.85360664 0.12070667 -1.6472667
0.73404002 0.13188334 -1.6423334
0.74274004 0.132276 -1.6431
0.75697434 0.13561143 -1.6477715
0.76596445 0.13293889 -1.6463445
0.77643669 0.13224834 -1.6466835
0.78173 0.13068999 -1.6468
0.83341002 0.27994001 -1.6488
0.84828001 0.27656999 -1.6497
0.82280999 0.2832 -1.6489
0.83875 0.28413001 -1.6447999
0.84669673 0.28934002 -1.6449001
0.83845496 0.29457 -1.6454999
0.84466285 0.29306287 -1.6426142
0.81660664 0.30694002 -1.6464
0.82767498 0.30628499 -1.6468
0.83512747 0.30528247 -1.6449125
0.8451243 0.30629146 -1.6444144
0.85148335 0.30243668 -1.6423334
0.81347251 0.31806251 -1.64665
0.82665998 0.31433374 -1.6466374
0.83601993 0.31405002 -1.6462749
0.84375006 0.3168 -1.6433376
0.80941999 0.32431999 -1.6494
0.81406456 0.32551619 -1.6451539
0.82457 0.32473332 -1.6448554
0.83517253 0.32377002 -1.6447834
0.84464997 0.32493201 -1.6421601
0.81410164 0.33660695 -1.6449078
0.82606411 0.33613002 -1.644925
0.83390296 0.33456001 -1.644293
0.84282398 0.33548 -1.64188
0.80621499 0.341685 -1.6466
0.81606907 0.34618601 -1.6457798
0.82387251 0.34341627 -1.6445999
0.83494329 0.34430334 -1.6412333
0.79809999 0.35299334 -1.6447001
0.80565143 0.35410717 -1.6456716
0.81536609 0.35442391 -1.6447848
0.8240633 0.35452914 -1.643875
0.83372593 0.35301599 -1.6427001
0.8051725 0.364595 -1.6414249
0.81648624 0.36499625 -1.6456501
0.82504094 0.36495802 -1.6414801
0.82411999 0.39278001 -1.641
0.88299501 0.097914003 -1.63255
0.90634 0.095051996 -1.6325001
0.80430806 0.108982 -1.6314801
0.81472003 0.10965334 -1.6321334
0.82620502 0.10838833 -1.6324166
0.83631337 0.10707334 -1.6312833
0.84654802 0.10739201 -1.63468
0.85540253 0.107365 -1.6350625
0.86456996 0.1064425 -1.6358001
0.87596005 0.10386001 -1.6333334
0.88444197 0.10417201 -1.6352202
0.89269578 0.1054 -1.6356715
0.90324801 0.103594 -1.6319001
0.77629328 0.11856 -1.6323001
0.78327751 0.11725 -1.6324
0.79557836 0.11684917 -1.634325
0.80429602 0.116264 -1.6344999
0.81523502 0.114295 -1.6370749
0.82568997 0.11007 -1.6382999
0.83506995 0.11392889 -1.6382445
0.84501672 0.11348334 -1.6370335
0.85541403 0.112098 -1.6368001
0.86381495 0.1127025 -1.6377751
0.89589 0.110985 -1.6385
0.72839999 0.12953 -1.6323
0.73604673 0.127785 -1.6338834
0.74487627 0.12713125 -1.6328626
0.75456256 0.12579501 -1.6340749
0.76480377 0.1245725 -1.6346624
0.77230668 0.12297666 -1.6331668
0.78224003 0.12224001 -1.6382666
0.79479671 0.12225667 -1.6385834
0.80164999 0.12012 -1.6393
0.74530256 0.131935 -1.63785
0.75238001 0.13155 -1.6382
0.85168004 0.28887337 -1.6390667
0.86662745 0.28824997 -1.6338999
0.84779 0.29679999 -1.6393
0.85177004 0.29391497 -1.6373501
0.86557996 0.29444999 -1.6356
0.83348 0.30851001 -1.6377
0.84938002 0.30581 -1.6372499
0.85380334 0.30612335 -1.6373667
0.86450499 0.30733499 -1.6315
0.81553745 0.31830502 -1.6346999
0.82238001 0.31972 -1.6353
0.84726 0.31217998 -1.6356
0.85628003 0.317554 -1.63482
0.81621599 0.32658401 -1.637
0.82100999 0.32582501 -1.6379
0.83750999 0.32525334 -1.6371667
0.84324503 0.32629001 -1.63835
0.85281998 0.32391 -1.6348751
0.81674999 0.331635 -1.6387501
0.82075 0.33032 -1.6366
0.83477861 0.33548433 -1.6381
0.84541577 0.33550146 -1.6352859
0.85389173 0.33315167 -1.6322334
0.80484998 0.34897 -1.6364
0.81893671 0.34285998 -1.6370667
0.82475746 0.34527269 -1.6365865
0.83520848 0.34513155 -1.6361463
0.84465998 0.34436002 -1.6336924
0.85548496 0.34185499 -1.631
0.80434 0.35038 -1.6352
0.81849003 0.35889 -1.6391001
0.82644582 0.35721251 -1.6359667
0.83524549 0.35523823 -1.6340002
0.84388 0.35303304 -1.63322
0.41005 0.38692001 -1.6301
0.83439445 0.38646775 -1.6329666
0.84293002 0.38705999 -1.6307
0.40531999 0.39387 -1.6322
0.41225001 0.39001 -1.6362
0.81680167 0.39662668 -1.6348
0.82581377 0.3937619 -1.6342689
0.8310234 0.39525336 -1.6313667
0.81989002 0.40294999 -1.6375
0.82567835 0.40748 -1.6348833
0.83276498 0.40152001 -1.63175
0.82758331 0.41335666 -1.6314
0.88687998 0.089543998 -1.6206
0.91413999 0.089929 -1.6275001
0.92135 0.087980002 -1.6215
0.81832999 0.099280998 -1.6212
0.82631004 0.099362001 -1.6225002
0.83921999 0.099565998 -1.6258
0.84493339 0.099417001 -1.6234001
0.85747749 0.0968685 -1.6217749
0.865125 0.096574374 -1.6237
0.874075 0.095583878 -1.624025
0.88532424 0.096773088 -1.6224668
0.89728749 0.096125752 -1.623175
0.904055 0.098030753 -1.6275249
0.91561002 0.092946008 -1.62395
0.92364669 0.093834668 -1.6208334
0.77519006 0.10918333 -1.6251
0.78453499 0.1082775 -1.6232251
0.79602402 0.107426 -1.6260401
0.80518508 0.10457 -1.6216501
0.81480366 0.10513455 -1.6251001
0.82531625 0.10411375 -1.624925
0.83517373 0.10514375 -1.6262376
0.84329003 0.10257401 -1.6251801
0.85402 0.1021075 -1.626025
0.86507004 0.10344001 -1.6260287
0.87303501 0.10371 -1.6241
0.88363004 0.10211501 -1.6262
0.89394802 0.103922 -1.6258601
0.90698498 0.10219 -1.62745
0.91255999 0.1021825 -1.6273
0.92135 0.10092 -1.6207
0.7349 0.11873 -1.6203001
0.74433607 0.117732 -1.6237801
0.75588751 0.1188275 -1.627075
0.76483727 0.11595818 -1.6236907
0.77469605 0.11361001 -1.6245699
0.78472996 0.11274334 -1.6262168
0.79497802 0.111904 -1.62874
0.803285 0.111155 -1.6278501
0.71904999 0.12867001 -1.6215
0.72665 0.1256 -1.6232001
0.73654002 0.12277 -1.6229
0.74714607 0.123744 -1.6258401
0.7554161 0.123594 -1.6283001
0.765755 0.122635 -1.62885
0.71981001 0.13237999 -1.6287
0.74338001 0.13076 -1.6284
0.86574668 0.31588835 -1.6288667
0.85614502 0.32320249 -1.626875
0.8628267 0.32198 -1.6289667
0.86053002 0.33864 -1.6279
0.87111998 0.33888999 -1.6209
0.836945 0.34363002 -1.6273501
0.84354502 0.34323502 -1.6293
0.85507458 0.34499276 -1.6269271
0.86340296 0.34231427 -1.6231573
0.87138999 0.34388 -1.6203001
0.82874 0.35363999 -1.6267
0.83454007 0.35613999 -1.6278
0.84632874 0.35510623 -1.627525
0.85362774 0.35494775 -1.6265112
0.82427502 0.3838425 -1.6277502
0.83371592 0.38486502 -1.6237601
0.84476811 0.38425729 -1.625482
0.85096002 0.38444501 -1.6231999
0.82717001 0.39471668 -1.6290667
0.834741 0.39515501 -1.624509
0.84639448 0.39475003 -1.6243666
0.85308999 0.393635 -1.6214499
0.82795602 0.40646601 -1.62546
0.83590132 0.40529606 -1.6243134
0.84455603 0.40548801 -1.6227601
0.85095 0.40689 -1.62075
0.81950998 0.41332999 -1.628
0.82504672 0.41137335 -1.6254667
0.83620226 0.4150762 -1.6253153
0.84340751 0.41506872 -1.6222626
0.824045 0.42105001 -1.6244
0.83654332 0.42368835 -1.6221666
0.84293002 0.42769 -1.6205
0.83437002 0.44298336 -1.6205667
0.92567003 0.079525001 -1.6116
0.84419 0.089038 -1.6114
0.86940002 0.089321002 -1.6165
0.87510335 0.089179665 -1.6139667
0.88610506 0.086444169 -1.6130333
0.89462823 0.085911371 -1.6130453
0.90579146 0.085811578 -1.6154287
0.91348433 0.085550867 -1.6148858
0.92408001 0.087823436 -1.6144001
0.79551667 0.098772667 -1.6128668
0.80594397 0.096887402 -1.61386
0.81170338 0.09777233 -1.6143668
0.82809341 0.095477007 -1.6121668
0.83543998 0.095985994 -1.6167285
0.84512269 0.095657006 -1.6150638
0.85423291 0.094622158 -1.6170429
0.86336672 0.092302673 -1.6127
0.87557203 0.092661001 -1.6189998
0.88654006 0.093195997 -1.6177374
0.895154 0.094558001 -1.6181
0.90481639 0.09456946 -1.6165454
0.91499674 0.093644999 -1.6174334
0.92665112 0.094244331 -1.6152999
0.76469004 0.107605 -1.6131999
0.77656001 0.10487835 -1.6139166
0.78573006 0.10342 -1.6154715
0.79517502 0.10164001 -1.6140833
0.80328 0.10255 -1.6196001
0.81278002 0.10143 -1.6197666
0.826105 0.100825 -1.6192
0.83130997 0.10081 -1.6188999
0.84644997 0.10087 -1.62
0.85786003 0.10057 -1.615
0.86608005 0.10252 -1.6191
0.89058 0.10087 -1.6198
0.73307002 0.11649 -1.6111
0.74448431 0.11503715 -1.6159285
0.75440162 0.11331084 -1.6168334
0.76642001 0.110545 -1.61895
0.72632003 0.12342 -1.6167001
0.73446006 0.12232333 -1.6171668
0.74388999 0.12097999 -1.6179
0.87958002 0.3348 -1.6174001
0.87324667 0.34423336 -1.6192335
0.82982999 0.37873 -1.6168
0.87193 0.37559998 -1.6141
0.83666003 0.38776001 -1.62
0.84329498 0.38217998 -1.6171
0.8539328 0.38715288 -1.6165715
0.86159998 0.38668001 -1.61885
0.83856601 0.39562199 -1.6176199
0.84506875 0.39737877 -1.617175
0.85554773 0.39368385 -1.6170537
0.86299008 0.39575875 -1.6144
0.81285501 0.40812498 -1.6178
0.8229 0.40391001 -1.6174001
0.83877003 0.40087998 -1.6173
0.84520155 0.40556356 -1.6172215
0.85408223 0.40556711 -1.6144716
0.86053503 0.40211999 -1.6133499
0.8186 0.41771999 -1.619
0.8369267 0.41479334 -1.6127334
0.84698248 0.41615504 -1.6143751
0.85521758 0.4141992 -1.6142334
0.86265999 0.41306502 -1.6110001
0.83784002 0.42336333 -1.6171668
0.84637266 0.42516142 -1.6162467
0.85293001 0.42401901 -1.6122801
0.83836335 0.4368667 -1.6144667
0.84397 0.43340775 -1.6145444
0.85148662 0.4331567 -1.6127834
0.83393002 0.44395 -1.6133
0.84214503 0.45166001 -1.6126499
0.87726003 0.079003997 -1.6011
0.88692331 0.0777575 -1.6026833
0.905635 0.079039499 -1.6018
0.91495001 0.078150332 -1.6053667
0.80879003 0.088441998 -1.6006
0.82503998 0.086871997 -1.60115
0.83564001 0.084877744 -1.6010751
0.84805334 0.088747665 -1.6061667
0.85612249 0.085481003 -1.6047499
0.86598748 0.086004004 -1.60725
0.87364751 0.085118502 -1.6056999
0.88483667 0.082303002 -1.6048667
0.89472502 0.083081745 -1.6048
0.90399504 0.082364 -1.606075
0.91551441 0.082636215 -1.6047332
0.92110997 0.080729999 -1.605
0.75914001 0.098246001 -1.6043
0.76539254 0.098592252 -1.6032
0.77547598 0.095899403 -1.6028799
0.78555006 0.09641134 -1.6051835
0.79513836 0.095094666 -1.6056833
0.80534822 0.092484541 -1.6057273
0.81561929 0.093789078 -1.6065001
0.82448798 0.0932758 -1.6073
0.83422625 0.091017 -1.6041374
0.85479665 0.09028767 -1.6052666
0.88314998 0.090202004 -1.6038001
0.89016002 0.090479001 -1.6087
0.7378 0.10939 -1.602
0.74620283 0.10646858 -1.6033143
0.75485998 0.10487251 -1.6053376
0.76480711 0.10449857 -1.6068285
0.77419508 0.10205834 -1.60715
0.78402328 0.10233667 -1.6071
0.79084998 0.10334 -1.6049
0.72451001 0.118605 -1.6077499
0.73337668 0.11283667 -1.6038666
0.7155 0.1224 -1.6033
0.72451001 0.12103 -1.6075
0.88506997 0.37852502 -1.60165
0.84991997 0.39743 -1.6092
0.87159997 0.39025 -1.6041
0.88275999 0.39309001 -1.6034
0.83617002 0.40957999 -1.6077
0.84382999 0.4059 -1.6092
0.85243499 0.40380746 -1.6087501
0.87303001 0.40469199 -1.6052399
0.88011998 0.40798 -1.6014
0.83520204 0.41833201 -1.6087201
0.84938997 0.41889 -1.609
0.85583663 0.41930997 -1.6053166
0.86530495 0.4155525 -1.6071501
0.87439144 0.41403288 -1.6035001
0.88011998 0.41163999 -1.6005
0.85553002 0.42467165 -1.6064415
0.86372149 0.42313573 -1.6071285
0.87165999 0.42065001 -1.6025
0.84850001 0.43160999 -1.6061667
0.85593009 0.43443999 -1.6068666
0.86053002 0.43351501 -1.6052001
0.83875 0.44837001 -1.6078
0.83126003 0.078542002 -1.5917
0.84354997 0.078660004 -1.5941
0.85575569 0.076804005 -1.5931144
0.86537427 0.077074572 -1.5943142
0.87586844 0.075497337 -1.59455
0.88278496 0.073926494 -1.5958
0.89362937 0.076056175 -1.5944824
0.90542603 0.073482595 -1.5935801
0.914042 0.075952001 -1.59724
0.76806498 0.088848501 -1.59375
0.77722001 0.088819504 -1.593225
0.78430402 0.087363899 -1.5926801
0.79945499 0.085702501 -1.5942
0.80592602 0.085584797 -1.5950201
0.81490749 0.085005879 -1.5939686
0.8250944 0.086324856 -1.5952142
0.83563703 0.083053 -1.5949601
0.84445626 0.083544381 -1.59455
0.85412997 0.082591698 -1.5951699
0.86593837 0.081841007 -1.5958166
0.87127501 0.083368003 -1.5946
0.89517999 0.080345005 -1.59735
0.91342998 0.083576001 -1.5992
0.7562933 0.098266333 -1.5954666
0.76455802 0.095029198 -1.59382
0.77508569 0.093052 -1.5941287
0.78412598 0.092906795 -1.59552
0.73613149 0.10625429 -1.596743
0.74700999 0.10081001 -1.5920999
0.75391674 0.10266667 -1.5969667
0.73031002 0.11058 -1.5947
0.88275999 0.40755999 -1.5998
0.85574001 0.42342001 -1.6
0.86794502 0.44146502 -1.5969
0.85977 0.068356998 -1.5807
0.8658967 0.066834673 -1.5827334
0.87348604 0.066875808 -1.5839
0.89584994 0.065212004 -1.582725
0.9040125 0.066471249 -1.5836999
0.77990001 0.079594001 -1.5824
0.78145999 0.078213997 -1.5851001
0.79646748 0.078156501 -1.5840499
0.80481339 0.077109002 -1.5844166
0.81326199 0.076226406 -1.58356
0.82350999 0.076253332 -1.5846444
0.83543003 0.075648546 -1.5856819
0.84369999 0.074502751 -1.5820749
0.85476601 0.073519006 -1.58718
0.864025 0.0738765 -1.586225
0.87562335 0.070974171 -1.5852833
0.88603753 0.070649505 -1.5871
0.89571202 0.072256997 -1.58816
0.90482408 0.070859209 -1.58632
0.75370747 0.088142999 -1.5810499
0.76624 0.087180994 -1.585
0.77234 0.086879499 -1.5866001
0.78642863 0.084715284 -1.5863858
0.79401702 0.084187999 -1.58654
0.80423802 0.082931995 -1.58676
0.81501669 0.08238367 -1.5864
0.8232767 0.082480669 -1.5883001
0.83511341 0.084577672 -1.5881002
0.84064996 0.083703503 -1.5866001
0.73545998 0.098447002 -1.581
0.74507618 0.09566088 -1.5846627
0.75435674 0.09233284 -1.58575
0.76194996 0.092045993 -1.587575
0.78406 0.090925001 -1.5887001
0.71938998 0.10799 -1.5815001
0.73695999 0.10026 -1.5835
0.72079998 0.11184 -1.5896
0.41312 0.35916001 -1.5835
0.86298501 0.058537997 -1.5724001
0.89270675 0.058127336 -1.5757334
0.77919 0.069504 -1.5704
0.78529 0.069572002 -1.57195
0.7961933 0.069732666 -1.5756
0.80352002 0.069513001 -1.5706
0.81565332 0.069626331 -1.5732
0.82342499 0.069554999 -1.5716
0.83551574 0.06671457 -1.5743717
0.84595668 0.066366509 -1.574475
0.85456192 0.064291373 -1.5735545
0.86488169 0.063047409 -1.5741251
0.87376672 0.06456878 -1.5752444
0.88496667 0.065641895 -1.5755222
0.89396 0.063796438 -1.5731778
0.90284997 0.063486002 -1.5795
0.75528502 0.079106502 -1.57275
0.76705432 0.076295286 -1.5734715
0.77583402 0.077367403 -1.5746801
0.78455579 0.077251285 -1.5748286
0.79527408 0.074792199 -1.5738801
0.80572444 0.074367449 -1.5745221
0.81541336 0.073016003 -1.5763667
0.82287002 0.071880668 -1.5752001
0.83428997 0.074533999 -1.5744333
0.84148002 0.071310997 -1.5747
0.74296999 0.088381 -1.5714
0.75497502 0.08360412 -1.5734375
0.76382005 0.082379006 -1.5762125
0.77531666 0.081518166 -1.5747499
0.73521 0.094081998 -1.575
0.74224496 0.093484499 -1.57845
0.72744 0.10164 -1.5784
0.85725999 0.048757002 -1.5615
0.82503003 0.058111001 -1.5609
0.83903998 0.059868999 -1.566
0.84290999 0.058120001 -1.5611
0.85211337 0.058891337 -1.5678
0.86554837 0.056674998 -1.5654835
0.87569296 0.056810398 -1.5649201
0.88530666 0.056287553 -1.5639
0.8918075 0.057857499 -1.565125
0.76991999 0.069081001 -1.5609
0.77710003 0.067767002 -1.5671
0.78347003 0.067732334 -1.5662999
0.79564667 0.067659333 -1.5646501
0.8064062 0.06650313 -1.56565
0.81539381 0.065867998 -1.5647125
0.82454228 0.065913223 -1.5652666
0.83549219 0.063585557 -1.5640666
0.84593999 0.065118998 -1.5672334
0.85092002 0.069367997 -1.5674
0.87519997 0.064643666 -1.5686835
0.88397002 0.061505999 -1.5683
0.74688339 0.077041 -1.5615333
0.75740284 0.075755864 -1.5671287
0.7650733 0.074893832 -1.5656834
0.77567106 0.072705895 -1.5658001
0.78591716 0.073073722 -1.5676286
0.79380673 0.072613671 -1.5679001
0.80672002 0.073384501 -1.56725
0.82456499 0.070998996 -1.5678
0.83047998 0.071041003 -1.5687
0.74326169 0.083634667 -1.5654666
0.76402003 0.080362998 -1.5674
0.72048002 0.09719 -1.5608
0.4136 0.34777999 -1.562
0.84547997 0.048457999 -1.55195
0.85497999 0.049259998 -1.5527999
0.87595499 0.048453502 -1.5517499
0.88268501 0.048593 -1.55625
0.79290336 0.057697665 -1.5506001
0.806108 0.058716204 -1.5521201
0.81520998 0.058623753 -1.5538249
0.82484001 0.055909112 -1.5540445
0.83516598 0.055062499 -1.5554199
0.84471643 0.053609639 -1.5557092
0.85457307 0.053678401 -1.55625
0.86519581 0.054566432 -1.5562714
0.874412 0.051963605 -1.55576
0.88366151 0.052585285 -1.5575143
0.74574673 0.068185672 -1.5525335
0.75420499 0.068674996 -1.5517
0.76488632 0.065647878 -1.5548625
0.77574372 0.06382025 -1.5532501
0.78451574 0.063053712 -1.5516144
0.79221666 0.06406267 -1.5546999
0.80508327 0.063097335 -1.5568666
0.81410503 0.061733499 -1.5547
0.82106996 0.061837502 -1.55735
0.73706001 0.073909499 -1.5535499
0.74462879 0.074249126 -1.55645
0.7537967 0.071559668 -1.5565002
0.76204503 0.070474997 -1.5562
0.73290002 0.087736003 -1.5599
0.72543001 0.092278004 -1.5582
0.8150925 0.04895775 -1.5432
0.82462001 0.047365502 -1.5418
0.83455175 0.04821917 -1.5443833
0.84573334 0.046667002 -1.5444
0.85641372 0.048002124 -1.5436749
0.86528504 0.047867 -1.545475
0.87357748 0.045849502 -1.5431499
0.88116002 0.046801999 -1.5488
0.76665998 0.058187 -1.5422
0.77541226 0.056793887 -1.5445334
0.78504169 0.056240331 -1.5463166
0.79521006 0.056731336 -1.5452166
0.80371833 0.055111002 -1.5441999
0.81464142 0.054186001 -1.5458
0.82381999 0.053650498 -1.5457
0.83107001 0.053752501 -1.5487
0.84325999 0.051421002 -1.5485001
0.85548002 0.051408 -1.5481
0.86623001 0.051406 -1.5481
0.72846997 0.069037005 -1.5420001
0.73562151 0.067951575 -1.5453572
0.74592173 0.064700671 -1.5446
0.75459009 0.064848505 -1.5469601
0.76399499 0.062489249 -1.5445499
0.77713501 0.062662505 -1.54935
0.78358501 0.062214501 -1.5474501
0.79432839 0.061220668 -1.5481668
0.8039 0.060563665 -1.5442667
0.72607672 0.074007332 -1.5414333
0.73326337 0.074850664 -1.5480001
0.74168003 0.070078999 -1.5475
0.82600999 0.038614001 -1.5309
0.83363998 0.038636997 -1.5318334
0.84426999 0.037877999 -1.53195
0.85526252 0.036828499 -1.5350749
0.86549336 0.03648622 -1.5334778
0.76959997 0.049421001 -1.5336
0.77336663 0.04887367 -1.5324668
0.78365839 0.04868 -1.5344501
0.79570502 0.0485995 -1.5318999
0.80299664 0.047336332 -1.5326002
0.81477273 0.045658369 -1.5343363
0.82394838 0.046709836 -1.5372667
0.83561182 0.043016367 -1.5346909
0.84585834 0.04302267 -1.53415
0.85581338 0.043340005 -1.5361418
0.86352718 0.042815004 -1.5331715
0.87260002 0.041819334 -1.5366666
0.73557663 0.058065336 -1.5322001
0.74692285 0.056387573 -1.5330287
0.75489503 0.056951873 -1.5353625
0.764732 0.0549994 -1.53644
0.77560842 0.053300168 -1.5368001
0.78407711 0.054312199 -1.5344002
0.79772747 0.051711746 -1.5350001
0.80504 0.052560002 -1.53825
0.72515428 0.064843431 -1.5357287
0.73605287 0.062938429 -1.5383288
0.74528599 0.060852803 -1.5361401
0.75759 0.060328998 -1.5383
0.72272998 0.072809003 -1.5376
0.85600996 0.029491 -1.5259
0.79795504 0.039159998 -1.5223999
0.80625331 0.037891999 -1.5220001
0.8159067 0.039465334 -1.5244
0.82598752 0.035812251 -1.5243751
0.83521551 0.035703637 -1.5242726
0.84463 0.034426749 -1.5214875
0.85526752 0.033591624 -1.5260375
0.86389858 0.033980004 -1.5265286
0.75606251 0.046770748 -1.522675
0.76546669 0.047623664 -1.5252333
0.77426398 0.0457404 -1.52396
0.78603673 0.046461999 -1.5263555
0.79519397 0.045471799 -1.52484
0.80366796 0.042765003 -1.5263599
0.81691837 0.0422865 -1.5258501
0.82487005 0.041164503 -1.526525
0.83820999 0.0408305 -1.5281
0.84476662 0.041110002 -1.5290999
0.85210001 0.041579001 -1.5276999
0.86276001 0.040059999 -1.5276999
0.71899337 0.056680333 -1.5227334
0.72516888 0.057219446 -1.5239444
0.73594874 0.05559 -1.5246749
0.7469933 0.051584333 -1.5239667
0.75503141 0.052383434 -1.5262144
0.76244247 0.051778749 -1.52475
0.77392 0.050795998 -1.5297
0.78628004 0.050733 -1.5277666
0.80137002 0.050806001 -1.53
0.71489 0.062049001 -1.5246999
0.72008997 0.061420001 -1.5281
0.7166 0.077404499 -1.52415
-0.22080499 0.325405 -1.5223
0.82841998 0.029258 -1.5139
0.83565998 0.029315 -1.5167999
0.84451002 0.028550999 -1.515625
0.85639 0.028791999 -1.5153334
0.73387003 0.038176998 -1.5136
0.75878 0.039627001 -1.5112
0.76555502 0.039701 -1.5139999
0.77492332 0.039742336 -1.5155668
0.78268498 0.039301999 -1.513225
0.79371744 0.036668252 -1.5132999
0.80566818 0.035224363 -1.5154454
0.81527805 0.034907598 -1.51484
0.82328671 0.032240503 -1.5156502
0.8343575 0.031875499 -1.51615
0.84334671 0.034295004 -1.5185335
0.71821499 0.048712999 -1.51165
0.72633499 0.048800498 -1.5143499
0.7356078 0.047753219 -1.5132111
0.74442625 0.045323875 -1.51255
0.75516862 0.044211287 -1.5136144
0.76408714 0.043135427 -1.5134714
0.77549666 0.042195838 -1.5137666
0.78423166 0.0429915 -1.5150669
0.79045999 0.043350335 -1.5186
0.70613998 0.053902604 -1.5145
0.71387756 0.054324165 -1.5145835
0.72712821 0.052257188 -1.5163181
0.73303002 0.051840998 -1.5172
0.74188501 0.050419003 -1.5183001
0.70660996 0.063119501 -1.5132999
0.71451002 0.064115003 -1.5185
0.71261001 0.079438001 -1.52
-0.22054 0.32258999 -1.5197999
0.804708 0.0287774 -1.50422
0.815045 0.027511001 -1.5029999
0.82685 0.024511499 -1.502625
0.83628291 0.024765287 -1.5049716
0.84550011 0.024433637 -1.504491
0.85320002 0.026179001 -1.5091
0.73282999 0.038408 -1.5029334
0.74631745 0.036449999 -1.50385
0.75468564 0.036974002 -1.5052779
0.76375002 0.036752 -1.5043601
0.77533424 0.035195574 -1.5050286
0.78401101 0.0348504 -1.5057
0.79742998 0.031531002 -1.5051999
0.8047334 0.03378883 -1.50675
0.81197333 0.031025669 -1.5048001
0.82801002 0.030602001 -1.5081
0.67614174 0.047663834 -1.5023835
0.68531722 0.048840716 -1.5026573
0.69403404 0.047473799 -1.5016401
0.7061311 0.047108669 -1.5036445
0.71373397 0.045467198 -1.50472
0.72493255 0.044501416 -1.5062666
0.73340005 0.042394005 -1.5028667
0.74512857 0.043846432 -1.5080858
0.75374669 0.041451998 -1.5048332
0.76010001 0.042528 -1.5079
0.69629198 0.055027004 -1.50308
0.70361328 0.054290831 -1.5067166
0.71812999 0.051548999 -1.5087
0.73180002 0.050136998 -1.5098
0.70011002 0.060493998 -1.505
-0.21923999 0.32688001 -1.5036
0.815 0.019747 -1.4941
0.8228575 0.01973225 -1.4930251
0.83596998 0.017562 -1.49195
0.74370003 0.028845999 -1.4924999
0.75567001 0.0288605 -1.4932499
0.76896 0.024484999 -1.4908
0.77213001 0.025169499 -1.4906001
0.78845 0.027368501 -1.49245
0.79760998 0.025502499 -1.4948249
0.8052755 0.024130847 -1.4944614
0.81591827 0.024388455 -1.4954182
0.82432836 0.024195334 -1.4968166
0.83703339 0.021787336 -1.4976667
0.84284002 0.026008001 -1.4992
0.69532752 0.038790248 -1.4935
0.70591253 0.038801998 -1.4939001
0.7169975 0.038051501 -1.4937
0.72488248 0.038147248 -1.497425
0.73511732 0.035575364 -1.4957637
0.7436772 0.033724859 -1.496143
0.75487435 0.034525432 -1.4945285
0.76458222 0.032128226 -1.4947889
0.77477163 0.033062004 -1.49625
0.78558338 0.030872669 -1.4974334
0.79171336 0.031376 -1.4982333
0.66603106 0.0451205 -1.49343
0.67491645 0.044872001 -1.4943182
0.68559921 0.044479463 -1.4949001
0.69540459 0.044626385 -1.4958539
0.70359749 0.042585749 -1.4966251
0.71424598 0.043135401 -1.49704
0.72365999 0.040661499 -1.494
0.68567502 0.052615501 -1.4955
0.69244504 0.054945998 -1.49755
0.42192 0.30430001 -1.4921
0.76590002 0.019573335 -1.4809999
0.79436201 0.017077601 -1.48368
0.80416006 0.016603859 -1.4845859
0.82664502 0.016410623 -1.4847126
0.83423829 0.016111251 -1.4844418
0.67646003 0.027167499 -1.4816
0.71964002 0.028701 -1.485
0.72536993 0.028678333 -1.4838667
0.73615003 0.028678333 -1.4839001
0.74461496 0.026818 -1.482275
0.75681746 0.027572751 -1.483425
0.76524621 0.026915001 -1.48695
0.77406996 0.025364248 -1.4858416
0.78489316 0.024835 -1.486077
0.79415339 0.024902999 -1.4883335
0.81511998 0.025832999 -1.4891
0.82207 0.021152999 -1.4893
0.65573996 0.037577249 -1.482375
0.66533339 0.035956889 -1.4836777
0.67417008 0.035858363 -1.4847999
0.68437505 0.036747999 -1.4856125
0.69469804 0.035114497 -1.4852499
0.706065 0.035882201 -1.48676
0.71437621 0.033765249 -1.484175
0.72365302 0.0323251 -1.4851999
0.73513335 0.030218333 -1.4892
0.745502 0.030732203 -1.48594
0.75443 0.031139668 -1.4869335
0.76327503 0.031679999 -1.4895999
0.6569888 0.043590751 -1.4857876
0.66610336 0.040902667 -1.4848999
0.67469501 0.040452499 -1.4863501
0.68459672 0.04147967 -1.4881001
0.69481504 0.0412465 -1.4885
0.70550334 0.040492669 -1.4878
0.71259999 0.040525001 -1.489
0.66325998 0.050742 -1.4851
0.69002002 0.064328998 -1.4876
0.64411199 0.016268199 -1.4725001
0.71753001 0.016618 -1.4713
0.72658998 0.019432999 -1.4703
0.74848998 0.019485001 -1.4743
0.75571001 0.018525332 -1.4736667
0.76579875 0.01736475 -1.4731876
0.78400004 0.0178228 -1.4761399
0.79612172 0.016211085 -1.4745334
0.64612001 0.025049999 -1.472975
0.65268999 0.029987 -1.4778
0.66671002 0.0275796 -1.4722
0.67581636 0.027192907 -1.4745818
0.68545002 0.027778376 -1.4749
0.69625145 0.028264573 -1.4740999
0.7049334 0.027045222 -1.4742222
0.71323001 0.026011666 -1.4745334
0.72516602 0.025015399 -1.4767799
0.73437196 0.025056899 -1.47709
0.74534893 0.024587 -1.475578
0.75292796 0.024751201 -1.4771
0.76423001 0.021883201 -1.4763199
0.774212 0.0225104 -1.4743599
0.64591801 0.033661004 -1.4732798
0.65460503 0.033890501 -1.4767601
0.66423243 0.032856248 -1.476375
0.6769442 0.033619337 -1.4777917
0.68462992 0.032865334 -1.4767169
0.69523168 0.032365166 -1.4760833
0.70599669 0.032373004 -1.4764333
0.71432501 0.032181501 -1.4788001
0.64695001 0.047453001 -1.4725
0.65342999 0.045401499 -1.4786999
0.66165 0.040201001 -1.4771
0.65710497 0.050370499 -1.4742
0.66613996 0.050450001 -1.4765
0.6551525 0.017704502 -1.4633875
0.66342008 0.016985668 -1.4627333
0.67769998 0.019329 -1.4625
0.68603724 0.017659547 -1.4627635
0.69137502 0.0186125 -1.4619501
0.71598595 0.017953899 -1.4645699
0.72679496 0.017965 -1.4655499
0.73563999 0.018337287 -1.4635288
0.74552447 0.016053667 -1.464
0.76617748 0.0158445 -1.4674499
0.637025 0.02649625 -1.4634
0.64553285 0.025116945 -1.4648334
0.65464211 0.025317632 -1.4662052
0.66344005 0.024086859 -1.465557
0.67452401 0.024497399 -1.46334
0.68776584 0.025826858 -1.4658999
0.69481725 0.024418728 -1.4654545
0.70590007 0.023316501 -1.4677083
0.71300876 0.023159249 -1.4657375
0.72598833 0.021842834 -1.46675
0.73495805 0.021400202 -1.4641601
0.74321997 0.020785499 -1.4634
0.75178999 0.021627 -1.4691999
0.64335001 0.037062503 -1.4691
0.68840998 0.031261001 -1.4699
0.69406998 0.031238999 -1.4689
0.70074999 0.031252999 -1.4694999
0.64468503 0.0464825 -1.4658
0.64682001 0.050117999 -1.4668
0.66895998 0.051626001 -1.4679
0.42116001 0.28935999 -1.4637001
0.39984 0.30399001 -1.4613
0.62981999 0.016476 -1.4586999
0.62968999 0.023863001 -1.4529999
0.6344533 0.023226 -1.4579333
0.64192998 0.022226 -1.4586999
0.66620338 0.020642001 -1.4533333
0.67467147 0.022436572 -1.4542572
0.68255997 0.021888001 -1.457525
0.63198 0.040932 -1.4513
0.64643502 0.0510865 -1.4526
0.65916997 0.051215999 -1.4563
0.66575998 0.052758001 -1.457
0.62232494 0.017059501 -1.4451499
0.62484002 0.029302999 -1.4441
0.66960001 0.020575 -1.4487
0.63075995 0.034412 -1.4493001
0.63637 0.050742 -1.4428
0.64863002 0.050942 -1.4485
0.61708999 0.021792 -1.4302
0.61998999 0.031941999 -1.4353
0.64643002 0.050622001 -1.4394
-0.77012002 0.21957999 -1.3853
-0.20479 0.2458075 -1.3772
-0.127675 0.24455249 -1.374125
-0.12777001 0.26177001 -1.375
-0.12741801 0.233686 -1.36524
-0.20363668 0.24819666 -1.3630667
-0.127535 0.24489751 -1.3682249
-0.20398 0.25442001 -1.3660001
-0.12748334 0.25271669 -1.3644667
-0.12753001 0.26465499 -1.3642499
-0.12752999 0.27144 -1.3629501
-0.19532949 0.22439317 -1.3522737
-0.13558882 0.2246585 -1.3543676
-0.20043665 0.23501834 -1.3531499
-0.19595 0.23091666 -1.3518333
-0.13571875 0.23114251 -1.3533626
-0.128866 0.23344401 -1.3540601
-0.2027 0.24894001 -1.3518
-0.12927499 0.241285 -1.3518
-0.20289251 0.253815 -1.3531749
-0.12731251 0.2538875 -1.3573999
-0.12732249 0.26402748 -1.3557501
-0.12739334 0.27656335 -1.3561
-0.12751 0.28556001 -1.359
-0.1274125 0.29422751 -1.3533249
-0.19348 0.22674778 -1.3485667
-0.18473683 0.22707422 -1.3480843
-0.17582779 0.22709614 -1.3469666
-0.16585222 0.22741723 -1.3474612
-0.15483415 0.22719882 -1.3485765
-0.14488001 0.22863501 -1.3495668
-0.136665 0.22841501 -1.34975
-0.20007667 0.23489666 -1.3488001
-0.1943059 0.23505174 -1.3453413
-0.18461551 0.23462658 -1.3442894
-0.17479219 0.23379913 -1.3429565
-0.16508399 0.23444058 -1.3432344
-0.15471527 0.23436525 -1.3436084
-0.14515251 0.2347381 -1.3463687
-0.1353603 0.23562768 -1.3470737
-0.12917501 0.23486501 -1.3491
-0.20013002 0.24269667 -1.3480667
-0.19589578 0.24518117 -1.3423615
-0.18466091 0.24309866 -1.3412409
-0.17391334 0.24034667 -1.3426332
-0.16531 0.2402 -1.34185
-0.15423834 0.24142668 -1.3410168
-0.14488371 0.24289317 -1.3423316
-0.13502643 0.24380644 -1.3435713
-0.12919834 0.24612167 -1.3478501
-0.20207 0.25743335 -1.3428
-0.1998775 0.25231248 -1.34325
-0.12907749 0.25375 -1.3418751
-0.20217335 0.26528168 -1.3424667
-0.128135 0.26231498 -1.34535
-0.20287 0.27373001 -1.349
-0.12722 0.27598 -1.3491
-0.12718999 0.28018001 -1.3469
-0.17518857 0.23752144 -1.3390858
-0.16557601 0.238362 -1.3393
-0.15447667 0.23740333 -1.3391335
-0.19208899 0.24482599 -1.3384498
-0.18427557 0.24659555 -1.3381945
-0.17463499 0.24537784 -1.3361468
-0.16506256 0.24475743 -1.3365687
-0.15463457 0.2451776 -1.3384
-0.14517155 0.24761155 -1.338177
-0.13643335 0.2480925 -1.3389585
-0.20167001 0.25742 -1.3381
-0.19464567 0.2551665 -1.3353376
-0.18490607 0.2542409 -1.3339727
-0.17581294 0.2551361 -1.3328291
-0.16481921 0.25415459 -1.333492
-0.15460552 0.25442466 -1.3340313
-0.14484064 0.25475502 -1.3346281
-0.13532524 0.25508729 -1.3363574
-0.1290125 0.25524002 -1.3390501
-0.20159 0.26407 -1.3357
-0.19535001 0.26357409 -1.3320864
-0.18539801 0.26255801 -1.3312867
-0.17664002 0.26225701 -1.3309602
-0.16524287 0.26211286 -1.3310286
-0.15433124 0.26194626 -1.331425
-0.144008 0.26282403 -1.3316734
-0.13510182 0.26466915 -1.3334486
-0.12874 0.26591998 -1.3367125
-0.20168833 0.27448165 -1.3348167
-0.19737573 0.27114427 -1.3314571
-0.18646 0.27302 -1.3321
-0.16078 0.27274001 -1.3307
-0.13474751 0.27090248 -1.3317001
-0.12895715 0.27458572 -1.3331
-0.20175999 0.28504503 -1.3334999
-0.1289925 0.28348249 -1.332575
-0.12897 0.29056999 -1.3303
-0.20476499 0.31779999 -1.3361001
-0.20494001 0.32014999 -1.3376
-0.18602 0.25841001 -1.3289
-0.17331003 0.25799289 -1.3295715
-0.16626571 0.25907573 -1.3282
-0.15563667 0.25992668 -1.3294333
-0.14922667 0.25838333 -1.3286999
-0.19342466 0.266128 -1.3277467
-0.18478411 0.26674882 -1.3274177
-0.17512681 0.26644573 -1.3266251
-0.16432191 0.26595774 -1.3264645
-0.15472041 0.26596996 -1.328076
-0.14615551 0.2668905 -1.3279098
-0.13686799 0.26902002 -1.3286599
-0.20129001 0.27727503 -1.3295
-0.19424485 0.27548888 -1.3256742
-0.18479361 0.27470356 -1.3243644
-0.17526706 0.27449 -1.3226383
-0.16505696 0.2745482 -1.3224425
-0.15522 0.27444568 -1.3237535
-0.14565673 0.27485871 -1.3244201
-0.13516158 0.27562711 -1.3269025
-0.201298 0.28487 -1.3279799
-0.195435 0.28350183 -1.3229454
-0.18548201 0.28102201 -1.3227199
-0.17654599 0.280938 -1.3223401
-0.16359624 0.28156874 -1.321825
-0.15510999 0.28179002 -1.3213
-0.1440025 0.28273001 -1.321
-0.13480146 0.28495497 -1.323341
-0.1288875 0.28530252 -1.3281
-0.20117286 0.29389286 -1.3245429
-0.19862001 0.29113999 -1.3200999
-0.13193166 0.29236168 -1.3214333
-0.12882286 0.2948586 -1.3234859
-0.20099001 0.30096 -1.3207999
-0.20344999 0.31865001 -1.3205
-0.20397668 0.32329333 -1.3255334
-0.18485999 0.27621001 -1.3189335
-0.17445999 0.27612501 -1.319
-0.1633625 0.27607 -1.318675
-0.15322667 0.27863336 -1.3193334
-0.14758 0.27989 -1.3186001
-0.19407289 0.28647861 -1.3172929
-0.18520702 0.28558853 -1.3171765
-0.17483713 0.28501201 -1.3174802
-0.16456224 0.28580806 -1.3171
-0.15510319 0.28543526 -1.3177562
-0.14543219 0.28518784 -1.3179109
-0.13835199 0.288486 -1.3181601
-0.20069 0.29693002 -1.3181
-0.19502258 0.29477999 -1.313642
-0.18547598 0.2942903 -1.3129801
-0.17463057 0.29412782 -1.3130194
-0.16462409 0.29433414 -1.3128296
-0.15499094 0.29457346 -1.313247
-0.14558108 0.29483631 -1.3138685
-0.13527088 0.29518399 -1.3145173
-0.128685 0.29877001 -1.31715
-0.20068428 0.30553287 -1.3160428
-0.19628729 0.30366093 -1.3122183
-0.18893668 0.30260667 -1.3111
-0.17709333 0.30730999 -1.3119
-0.16215 0.30001 -1.3104
-0.15293001 0.30320799 -1.3105801
-0.14512262 0.30413523 -1.311348
-0.13431723 0.30421862 -1.3120208
-0.12866375 0.30588999 -1.3146625
-0.20138334 0.31445003 -1.3138001
-0.14127 0.31009001 -1.3121001
-0.13278499 0.31097502 -1.3101499
-0.12863801 0.316154 -1.3112401
-0.203365 0.32260501 -1.31855
-0.12871 0.32183999 -1.3128
-0.20302001 0.33410001 -1.31155
-0.19225334 0.29881334 -1.3093001
-0.1851975 0.29895499 -1.3088624
-0.17561445 0.29805005 -1.3092333
-0.165198 0.29682902 -1.3091902
-0.15638144 0.29826146 -1.3096144
-0.20022 0.30949 -1.3096
-0.19400349 0.30657005 -1.307855
-0.18482648 0.30559161 -1.3061163
-0.17443699 0.30517751 -1.3064805
-0.16515127 0.30534309 -1.3063843
-0.15627623 0.30569059 -1.3073281
-0.146026 0.30647153 -1.3080351
-0.13635547 0.30735636 -1.3089274
-0.2001 0.31617147 -1.3065144
-0.19493283 0.31483689 -1.3041031
-0.18525788 0.31458154 -1.3033607
-0.17418516 0.31442514 -1.3028902
-0.16497415 0.31479549 -1.3029275
-0.15541282 0.31492072 -1.3036284
-0.14525044 0.31546617 -1.3036956
-0.13488302 0.31530932 -1.3057536
-0.12856334 0.31452334 -1.3087333
-0.20214625 0.32562 -1.306525
-0.19679931 0.32316145 -1.3013215
-0.18510154 0.32210153 -1.3020386
-0.17514274 0.32202545 -1.3017364
-0.16552667 0.32105002 -1.3031666
-0.15812334 0.32243335 -1.3016667
-0.14348748 0.32311499 -1.3014001
-0.13391167 0.32419503 -1.3023835
-0.12854125 0.3252975 -1.305225
-0.20250715 0.33576003 -1.3051001
-0.14941999 0.33232 -1.3001
-0.13054 0.33120999 -1.3001
-0.12858999 0.33426124 -1.3049001
-0.20240751 0.34435251 -1.301675
-0.12854999 0.34586 -1.3005
-0.20266999 0.35694 -1.3013999
-0.12861 0.35374999 -1.3004
-0.12885188 0.37375876 -1.3045437
-0.1575 0.30588001 -1.3
-0.19178601 0.31789598 -1.2969201
-0.18374287 0.31702858 -1.2967286
-0.17446665 0.3154875 -1.2961917
-0.16394201 0.31745499 -1.2966999
-0.15447001 0.31817248 -1.2993
-0.19499937 0.32620656 -1.2980093
-0.18471214 0.32584235 -1.2963659
-0.17442892 0.32594511 -1.2967677
-0.16501801 0.32571968 -1.2963228
-0.15516432 0.32572842 -1.2967305
-0.14572808 0.32611099 -1.2972193
-0.13602856 0.32700527 -1.297919
-0.20193 0.336465 -1.29805
-0.19533499 0.33485851 -1.2945684
-0.18530741 0.33399835 -1.2929838
-0.17477342 0.33512706 -1.2927512
-0.16572422 0.33465397 -1.2929791
-0.15551098 0.33568785 -1.2939785
-0.14491281 0.33520231 -1.294102
-0.13462321 0.33509961 -1.2954701
-0.12841335 0.33706671 -1.2972333
-0.20202111 0.34555557 -1.2967889
-0.19574666 0.34294182 -1.291718
-0.187241 0.34259501 -1.29149
-0.17415002 0.34056336 -1.2904
-0.165534 0.34157902 -1.29293
-0.15511286 0.34281287 -1.2909429
-0.1446147 0.34239528 -1.2912
-0.13416129 0.34320924 -1.2922206
-0.12843584 0.34466332 -1.2961
-0.20193753 0.35513002 -1.2932001
-0.14265834 0.35267997 -1.2913834
-0.13618499 0.35230002 -1.2907
-0.12842099 0.35440597 -1.2928602
-0.20206168 0.3617267 -1.2928166
-0.12849133 0.36614871 -1.2923267
-0.12859233 0.37131691 -1.2949231
-0.177605 0.312875 -1.28635
-0.17493001 0.32872251 -1.2892751
-0.15719 0.32925999 -1.2881
-0.19287001 0.33849001 -1.2895
-0.18273935 0.33761406 -1.2883536
-0.17745715 0.3387686 -1.2866571
-0.16463572 0.33861002 -1.2860144
-0.15476601 0.33812401 -1.2873801
-0.14894 0.33963001 -1.2869
-0.20153999 0.34957001 -1.29
-0.19440192 0.34703869 -1.2870287
-0.1842915 0.34588563 -1.2864236
-0.17502417 0.34554878 -1.2857214
-0.1658221 0.34592333 -1.2854196
-0.15531228 0.34543619 -1.2859837
-0.14517792 0.34584564 -1.2875543
-0.13499296 0.34688357 -1.2883766
-0.12827 0.34760001 -1.2886
-0.20157999 0.35402501 -1.28925
-0.19521904 0.35504743 -1.2836939
-0.18417315 0.35447741 -1.2821357
-0.17488451 0.35472709 -1.2821387
-0.1653505 0.35507011 -1.2823455
-0.1551279 0.35489085 -1.2826796
-0.14484888 0.3550989 -1.2843372
-0.13446428 0.35545859 -1.2855868
-0.12831573 0.35792714 -1.2878573
-0.20148553 0.36621523 -1.2847308
-0.19598046 0.36422184 -1.2812654
-0.1839935 0.36607563 -1.281726
-0.17499442 0.36608458 -1.282041
-0.16600785 0.36501598 -1.2810806
-0.15462688 0.36346 -1.280975
-0.1444138 0.36336505 -1.2814941
-0.13351347 0.36485696 -1.2821995
-0.12837222 0.36500219 -1.2880557
-0.19260627 0.35779619 -1.2791876
-0.18480119 0.35757598 -1.2790642
-0.17539285 0.35838479 -1.2784286
-0.16637158 0.35812101 -1.2782789
-0.15485092 0.35803822 -1.2788364
-0.14598624 0.35855252 -1.2792624
-0.20103499 0.3668175 -1.2792001
-0.19416535 0.36498651 -1.2766241
-0.1848243 0.36444348 -1.2761689
-0.17561568 0.3646735 -1.2763168
-0.16528095 0.36483344 -1.2768339
-0.15519942 0.36492175 -1.2777247
-0.14481731 0.36512232 -1.2776215
-0.13549408 0.36549234 -1.2784184
-0.12813 0.36248001 -1.2793
-0.19206463 0.36307615 -1.2662078
-0.18634219 0.36299759 -1.266192
-0.17645286 0.36383572 -1.2688286
-0.16601834 0.36399502 -1.2693667
-0.18825667 0.36084336 -1.2591667
0.34093001 0.021842999 -1.1302
0.35889 0.022946 -1.1308
0.36741504 0.021855168 -1.1311002
0.3734543 0.022949288 -1.1307857
0.38410503 0.021885334 -1.1327167
0.39527667 0.023193203 -1.1315601
0.40327001 0.021849668 -1.1308668
0.4542 0.024165999 -1.1363
0.45835999 0.040066 -1.1392
0.29510656 0.01613225 -1.1271906
0.30574811 0.01575527 -1.1277461
0.32439086 0.017174749 -1.1283584
0.33599353 0.016372824 -1.1281294
0.344145 0.017697787 -1.1281857
0.35462892 0.017122 -1.1289555
0.36469501 0.017215 -1.1298499
0.37515602 0.018021202 -1.1292199
0.38366002 0.0160455 -1.1296999
0.39407861 0.018804429 -1.1294
0.44306999 0.015804125 -1.125425
0.13976 0.021658 -1.1206
0.14147 0.02165 -1.1202
0.16649 0.022650201 -1.1212201
0.17987999 0.022193 -1.12045
0.18630999 0.023134332 -1.1213334
0.19393112 0.022763887 -1.1213223
0.20403692 0.023110384 -1.121877
0.21700083 0.023401834 -1.1213833
0.22693667 0.022418333 -1.1223834
0.23537688 0.022391938 -1.1232061
0.24508071 0.023584275 -1.1225171
0.2554774 0.023359928 -1.1227555
0.26544285 0.023513772 -1.1227601
0.27550027 0.024388785 -1.1225001
0.28524789 0.024299843 -1.1228265
0.29532117 0.024878642 -1.1233381
0.30533883 0.024764702 -1.1238977
0.31532952 0.025157928 -1.124005
0.32530972 0.024941901 -1.1251049
0.33491927 0.025111329 -1.1254618
0.34507737 0.024962956 -1.1256311
0.35504583 0.025304552 -1.1259789
0.36451152 0.025824439 -1.1272125
0.37521872 0.025580473 -1.1279107
0.38522917 0.025576515 -1.1274458
0.39561996 0.026153741 -1.1284295
0.40470326 0.024888281 -1.1252326
0.41427818 0.022060638 -1.1210365
0.42601144 0.022432001 -1.1202573
0.43580431 0.021826001 -1.1214715
0.44399667 0.023170834 -1.1232667
0.26778001 0.031188199 -1.12154
0.27598 0.032737002 -1.1210001
0.28749502 0.032723501 -1.12025
0.29760399 0.031852599 -1.12134
0.30653769 0.032772619 -1.1218385
0.31636617 0.033881463 -1.1213078
0.32635939 0.033121813 -1.1217375
0.33451217 0.03311548 -1.1220393
0.3454414 0.033204045 -1.1219857
0.35496521 0.034423515 -1.1227516
0.3647067 0.034584731 -1.1226752
0.37466216 0.034525033 -1.1217757
0.38513413 0.034932122 -1.1238537
0.39470837 0.035079729 -1.1234024
0.40311763 0.034489807 -1.1241572
0.35385001 0.040612999 -1.1216
0.37821001 0.040555999 -1.1201
0.38367572 0.041069862 -1.1207287
0.39542335 0.040952004 -1.1204667
0.40183797 0.041057002 -1.12126
0.47611001 0.047370002 -1.1219
0.13500838 0.016111482 -1.1174065
0.14517877 0.016215185 -1.1177093
0.16550715 0.015746359 -1.1183572
0.17486846 0.017115155 -1.1187924
0.18431073 0.017788643 -1.1189427
0.19394502 0.016819751 -1.1185167
0.20674142 0.018102571 -1.1189287
0.213 0.018727001 -1.1192667
0.234695 0.019414999 -1.1191499
0.41833001 0.019419 -1.1194
0.42519599 0.017565599 -1.1191601
-0.020768 0.025815999 -1.1108
-0.01523 0.023360752 -1.11085
-0.00085630006 0.024011668 -1.1110667
0.0048387111 0.02291389 -1.1110556
0.026450751 0.023198918 -1.111325
0.03294 0.022775799 -1.1107401
0.045684934 0.022643501 -1.1119624
0.057817776 0.023399778 -1.1109778
0.064056695 0.022657387 -1.112054
0.075639218 0.023551788 -1.1122141
0.0855349 0.023644036 -1.1124966
0.094730496 0.024333116 -1.1131412
0.10503921 0.024216378 -1.1129433
0.11485486 0.023753645 -1.1133944
0.12450568 0.024249842 -1.1138657
0.13470168 0.024620336 -1.1141356
0.1453619 0.024578786 -1.1155128
0.15523165 0.024897896 -1.1151729
0.16517136 0.025366431 -1.1166539
0.1746719 0.024995001 -1.1163021
0.18474813 0.02494744 -1.1169956
0.19470501 0.025401799 -1.1162003
0.20558082 0.025411757 -1.1172433
0.21429516 0.025573637 -1.1171093
0.22431085 0.025923884 -1.1176945
0.23482144 0.02626968 -1.1181679
0.24483117 0.027440941 -1.1189119
0.25334477 0.027197577 -1.1174843
0.2640031 0.028129311 -1.1185231
0.2741273 0.027631002 -1.1192728
0.28311718 0.027735431 -1.1181858
0.29194498 0.029346999 -1.1191499
0.30301499 0.0287975 -1.1195
0.31288499 0.025462501 -1.11935
0.40774575 0.026772145 -1.1176642
0.41466713 0.025594261 -1.1162838
0.42445639 0.025385823 -1.1170032
0.43478793 0.025714817 -1.1175668
0.44146502 0.026353335 -1.1179333
0.015034 0.031311002 -1.1102
0.062510498 0.033556998 -1.1105499
0.079179496 0.033014998 -1.1112001
0.081466004 0.033195 -1.1109667
0.095867753 0.031349253 -1.1114
0.10556714 0.031034859 -1.1114143
0.11472167 0.031165501 -1.1114668
0.12396546 0.032870729 -1.1114546
0.13446847 0.032473851 -1.1115769
0.14532049 0.03267486 -1.1111953
0.15560871 0.033028178 -1.1123739
0.1653512 0.03294168 -1.1123921
0.1746518 0.033133637 -1.1134273
0.18506859 0.033401173 -1.113207
0.19487131 0.033805821 -1.1132132
0.2051421 0.03384934 -1.1137551
0.21501485 0.03424608 -1.1147951
0.2243886 0.034055218 -1.1142477
0.23490593 0.034541331 -1.1155381
0.24501894 0.03438057 -1.1154981
0.25528583 0.034654185 -1.1156675
0.26484618 0.035487715 -1.1162976
0.27502415 0.034771655 -1.1167283
0.28497979 0.035027836 -1.116643
0.29473782 0.035480995 -1.1173605
0.30468532 0.035518527 -1.1174207
0.31475931 0.035367895 -1.117662
0.32401696 0.036118891 -1.1178846
0.33562243 0.03677481 -1.1189097
0.34407383 0.03696185 -1.1184049
0.35538998 0.037314285 -1.1193
0.36665198 0.038248599 -1.1188201
0.37330717 0.037164859 -1.1193857
0.39648002 0.037992999 -1.119475
0.40623075 0.034874115 -1.1152283
0.41515097 0.033871751 -1.1133698
0.42498326 0.033873472 -1.1127149
0.43488973 0.034740023 -1.1133189
0.44293383 0.034809537 -1.1156693
0.29404998 0.040308397 -1.11322
0.30448002 0.040274002 -1.1122668
0.315036 0.040268403 -1.1121
0.3252925 0.040371001 -1.1149501
0.33583337 0.04059317 -1.11585
0.344785 0.040952127 -1.1153123
0.35541302 0.040995605 -1.1164601
0.36552998 0.041039377 -1.1176875
0.37417376 0.041321121 -1.1176875
0.38595831 0.041929837 -1.1163834
0.39369777 0.041863441 -1.1179557
0.40457821 0.041751277 -1.1161728
0.42577499 0.041408248 -1.1122751
0.43554997 0.041746669 -1.1114
0.44110999 0.041404001 -1.1121
0.46717 0.044794999 -1.1145
-0.015298041 0.016479624 -1.1069083
0.0056185196 0.016713399 -1.1069
0.015791889 0.01620711 -1.1088222
0.023858126 0.0178605 -1.109025
0.035242446 0.017855445 -1.1089221
0.044730861 0.018458001 -1.1085715
0.052769668 0.017756667 -1.1077168
0.067808002 0.018469002 -1.1096667
0.070115998 0.016906001 -1.1095999
0.1067 0.019233 -1.1087
-0.19267 0.023396 -1.1001
-0.18087 0.021793999 -1.1002001
-0.17867333 0.021627 -1.1007
-0.16079 0.022356 -1.1016999
-0.15572751 0.021553375 -1.1015625
-0.13306333 0.022536835 -1.1016583
-0.12383126 0.021550875 -1.1014875
-0.11455 0.024109768 -1.1012617
-0.1035152 0.02350896 -1.1026174
-0.094896689 0.02377082 -1.1030319
-0.083795413 0.023675922 -1.102937
-0.074473999 0.024382761 -1.102608
-0.064293891 0.024024 -1.1040174
-0.054121871 0.024163397 -1.1034175
-0.044982746 0.024207344 -1.1042535
-0.035433751 0.024431689 -1.1038421
-0.025723843 0.025095262 -1.1038754
-0.015531857 0.024881817 -1.1045265
-0.0052933851 0.024617836 -1.1046919
0.0053842352 0.02509639 -1.1059848
0.015239984 0.024850475 -1.1053944
0.025075382 0.025279205 -1.1066182
0.035094775 0.024761243 -1.1066087
0.044599686 0.025563922 -1.1070158
0.054029807 0.025172099 -1.1066903
0.065899856 0.026490483 -1.1080778
0.074012421 0.025992638 -1.1073228
0.084399693 0.026487909 -1.1073955
0.096399128 0.026354467 -1.1086067
0.10411667 0.025602501 -1.108825
0.11321727 0.027374184 -1.1089636
0.1249711 0.027719 -1.1084777
0.13524799 0.028864199 -1.1092
0.14338499 0.027166 -1.10955
-0.073411465 0.030878911 -1.1018
-0.067728505 0.031043001 -1.1007
-0.04363 0.031541403 -1.1027201
-0.038242336 0.031103998 -1.1028001
-0.023887286 0.031697288 -1.1015429
-0.015089 0.031613201 -1.10131
-0.0049640099 0.031528242 -1.1027429
0.0033694562 0.031344138 -1.1033334
0.015946388 0.031782776 -1.1048944
0.025577998 0.031868279 -1.1045839
0.035580125 0.031222001 -1.1045412
0.044951625 0.032454479 -1.1039556
0.054871965 0.032134462 -1.1041572
0.065439425 0.032223966 -1.1058215
0.074418254 0.032253306 -1.1057869
0.085379377 0.032701503 -1.1064031
0.095130198 0.033013586 -1.1065587
0.10547926 0.033382963 -1.1074964
0.11522839 0.033387516 -1.107928
0.12558077 0.033200234 -1.1072924
0.13536566 0.033848826 -1.1076087
0.14449476 0.034615736 -1.1072001
0.15489876 0.034286372 -1.1074063
0.16404112 0.034715779 -1.1083555
0.17730819 0.036073089 -1.1074728
0.18603635 0.03646582 -1.1077728
0.19709201 0.037438001 -1.1082801
0.2056275 0.035983 -1.10875
0.22478199 0.038798001 -1.10316
0.23224334 0.037836999 -1.1068001
0.2438525 0.038472001 -1.109375
0.25356001 0.039034002 -1.1099
0.26480001 0.039882001 -1.10145
0.27595401 0.039936598 -1.10294
0.28277498 0.039941501 -1.1031001
0.40935001 0.039037999 -1.11
0.41621801 0.038345702 -1.10913
0.42430997 0.037930332 -1.1096667
0.43282002 0.039009001 -1.1091666
0.29462001 0.040042002 -1.1059
0.304865 0.040164001 -1.1092499
0.3148067 0.04097667 -1.1006668
0.32488498 0.041127998 -1.1047251
0.33343667 0.041255333 -1.1081333
0.34843001 0.042089 -1.1009001
0.35557199 0.042172 -1.1031001
0.36636499 0.042293251 -1.10625
0.37620002 0.042330667 -1.1072334
0.40735006 0.041388374 -1.1081625
0.41456234 0.041139312 -1.1075462
0.42524418 0.04148525 -1.1072251
0.43509799 0.041912604 -1.1062866
0.44186997 0.040763203 -1.1071399
0.45697001 0.044243999 -1.1008
0.46260667 0.046626329 -1.1039
0.47073999 0.056827001 -1.1084
-0.18529041 0.01578196 -1.0970039
-0.17382112 0.015759889 -1.0971628
-0.16535249 0.015649214 -1.0976108
-0.14452143 0.017915357 -1.0958859
-0.12675001 0.018143801 -1.09824
-0.10622001 0.016750751 -1.0994
-0.0945215 0.015623 -1.1
-0.080310002 0.019078 -1.0998
-0.062814496 0.019044001 -1.0978
-0.33469999 0.021095999 -1.0915999
-0.31259999 0.021079 -1.0907
-0.304214 0.024052 -1.09044
-0.29313889 0.020839 -1.0906889
-0.28338999 0.025372 -1.0917
-0.274396 0.022572402 -1.0914
-0.26430625 0.022110254 -1.0923438
-0.25488895 0.021829423 -1.0921367
-0.24524046 0.022706142 -1.0934476
-0.2352628 0.023688037 -1.0925999
-0.22505222 0.022828512 -1.0939678
-0.21434177 0.023417257 -1.0926385
-0.20501599 0.023771955 -1.0935577
-0.19425344 0.023672819 -1.0940546
-0.18478325 0.02453316 -1.0939939
-0.17440082 0.024406875 -1.094268
-0.16471578 0.02481018 -1.0946773
-0.15436432 0.025213674 -1.0958858
-0.14452252 0.024941051 -1.09578
-0.13496314 0.025589503 -1.0966146
-0.12466712 0.025498847 -1.0966694
-0.11455256 0.025228024 -1.0969064
-0.10519352 0.025972353 -1.0979028
-0.094308719 0.025743447 -1.0973368
-0.085047245 0.026144572 -1.0975516
-0.074311838 0.025399337 -1.0977722
-0.064595044 0.026763415 -1.0984709
-0.055347316 0.027133895 -1.0984054
-0.044914819 0.028799638 -1.0983638
-0.036556333 0.029531 -1.0984499
-0.022466499 0.025579501 -1.0998499
-0.014680667 0.027545001 -1.0990167
-0.0098409997 0.025562 -1.0998
-0.12364399 0.0308736 -1.09466
-0.1156925 0.0307895 -1.0917
-0.10451167 0.030876501 -1.0947666
-0.094526827 0.030956833 -1.0976
-0.084532008 0.030917166 -1.0962167
-0.076207504 0.031729251 -1.0959001
-0.063904002 0.0315441 -1.0951401
-0.054473169 0.031490333 -1.0970833
-0.045534 0.031687167 -1.0975502
-0.033633303 0.031644505 -1.0986099
-0.024703002 0.0322005 -1.0962001
-0.015531376 0.032322001 -1.0971375
-0.0082004666 0.032470666 -1.0991333
0.0069613373 0.032371998 -1.098825
0.010946667 0.032472 -1.0992
0.024608249 0.033892501 -1.0943251
0.034461185 0.033616453 -1.0992091
