# .PCD v0.7 - Point Cloud Data file format
VERSION 0.7
FIELDS x y z
SIZE 4 4 4
TYPE F F F
COUNT 1 1 1
WIDTH 1575
HEIGHT 1
VIEWPOINT 0 0 0 1 0 0 0
POINTS 1575
DATA ascii
-0.34603971 0.12694596 0.81600004
-0.34513146 0.12725709 0.81800002
-0.34337503 0.12725709 0.81800002
-0.34203631 0.12741268 0.81900007
-0.34027776 0.12741268 0.81900007
-0.33851922 0.12741268 0.81900007
-0.33676067 0.12741268 0.81900007
-0.33541116 0.12756824 0.82000005
-0.33324358 0.12741268 0.81900007
-0.33188978 0.12756824 0.82000005
-0.33012912 0.12756824 0.82000005
-0.3291693 0.12787938 0.82200003
-0.32780263 0.12803495 0.82300001
-0.32682779 0.1283461 0.82500005
-0.32545039 0.12850167 0.82600003
-0.32446054 0.1288128 0.82800007
-0.32307237 0.12896837 0.82900006
-0.32129237 0.12896837 0.82900006
-0.31951237 0.12896837 0.82900006
-0.31773236 0.12896837 0.82900006
-0.31442782 0.1283461 0.82500005
-0.31151947 0.12787938 0.82200003
-0.30824715 0.12725709 0.81800002
-0.30649078 0.12725709 0.81800002
nan nan nan
-0.30408916 0.12772381 0.82100004
-0.30269456 0.12787938 0.82200003
-0.30202785 0.1283461 0.82500005
-0.30098432 0.12865724 0.82700002
-0.29920858 0.12865724 0.82700002
-0.29779255 0.1288128 0.82800007
-0.29601467 0.1288128 0.82800007
-0.29388145 0.12865724 0.82700002
-0.29210573 0.12865724 0.82700002
-0.28997895 0.12850167 0.82600003
-0.28820539 0.12850167 0.82600003
-0.28677857 0.12865724 0.82700002
-0.28465825 0.12850167 0.82600003
-0.28322712 0.12865724 0.82700002
-0.28179178 0.1288128 0.82800007
-0.28001389 0.1288128 0.82800007
-0.27890807 0.12912394 0.83000004
-0.27812761 0.12959066 0.83300006
-0.27766594 0.13021295 0.83700001
-0.27784631 0.13114637 0.84300005
-0.27669111 0.13145751 0.84500003
-0.27552736 0.13176866 0.84700006
-0.27403182 0.13192423 0.84800005
-0.27221105 0.13192423 0.84800005
-0.27134678 0.13239093 0.85100001
nan nan nan
nan nan nan
nan nan nan
nan nan nan
nan nan nan
nan nan nan
nan nan nan
nan nan nan
nan nan nan
nan nan nan
nan nan nan
nan nan nan
nan nan nan
nan nan nan
nan nan nan
nan nan nan
nan nan nan
nan nan nan
nan nan nan
nan nan nan
nan nan nan
nan nan nan
nan nan nan
nan nan nan
nan nan nan
-0.22541644 0.13332437 0.85700005
-0.2238372 0.13347994 0.85800004
-0.22225364 0.13363551 0.85900003
-0.2206658 0.13379107 0.86000001
-0.21907365 0.13394666 0.86100006
-0.21722494 0.13394666 0.86100006
-0.21537624 0.13394666 0.86100006
-0.2137755 0.13410223 0.86200005
-0.21192463 0.13410223 0.86200005
-0.21007375 0.13410223 0.86200005
-0.2082229 0.13410223 0.86200005
-0.20613261 0.13394666 0.86100006
-0.20404661 0.13379107 0.86000001
-0.20196493 0.13363551 0.85900003
-0.19965456 0.13332437 0.85700005
-0.19781442 0.13332437 0.85700005
-0.19574562 0.1331688 0.85600007
-0.19390763 0.1331688 0.85600007
-0.19206965 0.1331688 0.85600007
-0.1904539 0.13332437 0.85700005
-0.18883385 0.13347994 0.85800004
-0.1872095 0.13363551 0.85900003
-0.18514928 0.13347994 0.85800004
-0.18330699 0.13347994 0.85800004
-0.18125321 0.13332437 0.85700005
-0.17941308 0.13332437 0.85700005
-0.17736575 0.1331688 0.85600007
-0.1753227 0.13301322 0.85500002
-0.17328395 0.13285765 0.85400003
-0.17124951 0.13270208 0.85300004
-0.16921934 0.13254651 0.85200006
-0.16719347 0.13239093 0.85100001
-0.16536622 0.13239093 0.85100001
-0.1633468 0.13223536 0.85000002
-0.1615217 0.13223536 0.85000002
-0.15969659 0.13223536 0.85000002
-0.15787148 0.13223536 0.85000002
-0.15586281 0.1320798 0.84900004
-0.15385841 0.13192423 0.84800005
-0.15203759 0.13192423 0.84800005
-0.15021679 0.13192423 0.84800005
-0.14839597 0.13192423 0.84800005
-0.14640233 0.13176866 0.84700006
-0.14458367 0.13176866 0.84700006
-0.14259644 0.13161308 0.84600002
-0.14077993 0.13161308 0.84600002
-0.13879915 0.13145751 0.84500003
-0.13698478 0.13145751 0.84500003
-0.13517042 0.13145751 0.84500003
-0.13351385 0.13161308 0.84600002
-0.13169736 0.13161308 0.84600002
-0.12988083 0.13161308 0.84600002
-0.12836708 0.13192423 0.84800005
-0.12684472 0.13223536 0.85000002
-0.12531379 0.13254651 0.85200006
-0.12377425 0.13285765 0.85400003
-0.12236892 0.13332437 0.85700005
-0.12066942 0.13347994 0.85800004
-0.11882714 0.13347994 0.85800004
-0.11698487 0.13347994 0.85800004
-0.11500839 0.13332437 0.85700005
-0.11316825 0.13332437 0.85700005
-0.11119822 0.1331688 0.85600007
-0.10923246 0.13301322 0.85500002
-0.10764785 0.13332437 0.85700005
-0.10580772 0.13332437 0.85700005
-0.1040889 0.13347994 0.85800004
-0.10224661 0.13347994 0.85800004
-0.10052135 0.13363551 0.85900003
-0.098676927 0.13363551 0.85900003
-0.096832499 0.13363551 0.85900003
-0.09498807 0.13363551 0.85900003
-0.093143634 0.13363551 0.85900003
-0.091299213 0.13363551 0.85900003
-0.089454785 0.13363551 0.85900003
-0.087610357 0.13363551 0.85900003
-0.085765921 0.13363551 0.85900003
-0.0839215 0.13363551 0.85900003
-0.082172617 0.13379107 0.86000001
-0.080326043 0.13379107 0.86000001
-0.078388207 0.13363551 0.85900003
-0.076543786 0.13363551 0.85900003
-0.074786313 0.13379107 0.86000001
-0.072939739 0.13379107 0.86000001
-0.071010493 0.13363551 0.85900003
-0.069166072 0.13363551 0.85900003
-0.067321643 0.13363551 0.85900003
-0.065477215 0.13363551 0.85900003
-0.063632779 0.13363551 0.85900003
-0.061788358 0.13363551 0.85900003
-0.059943926 0.13363551 0.85900003
-0.058099497 0.13363551 0.85900003
-0.056255069 0.13363551 0.85900003
-0.054410644 0.13363551 0.85900003
-0.052627407 0.13379107 0.86000001
-0.050780829 0.13379107 0.86000001
-0.048934255 0.13379107 0.86000001
-0.047087677 0.13379107 0.86000001
-0.045241103 0.13379107 0.86000001
-0.043444987 0.13394666 0.86100006
-0.041596267 0.13394666 0.86100006
-0.039747544 0.13394666 0.86100006
-0.03789882 0.13394666 0.86100006
-0.036050096 0.13394666 0.86100006
-0.034241099 0.13410223 0.86200005
-0.032352652 0.13394666 0.86100006
-0.030503929 0.13394666 0.86100006
-0.028655205 0.13394666 0.86100006
-0.026806483 0.13394666 0.86100006
-0.024957761 0.13394666 0.86100006
-0.023082197 0.13379107 0.86000001
-0.021235621 0.13379107 0.86000001
-0.019366501 0.13363551 0.85900003
-0.017522072 0.13363551 0.85900003
-0.015659392 0.13347994 0.85800004
-0.013817111 0.13347994 0.85800004
-0.011960872 0.13332437 0.85700005
-0.010132547 0.13347994 0.85800004
-0.0082999282 0.13363551 0.85900003
-0.006463015 0.13379107 0.86000001
-0.0046271752 0.13410223 0.86200005
-0.0027763052 0.13410223 0.86200005
-0.00092543504 0.13410223 0.86200005
0.00092543504 0.13410223 0.86200005
0.0027763052 0.13410223 0.86200005
0.0046271752 0.13410223 0.86200005
0.0064780451 0.13410223 0.86200005
0.0083289156 0.13410223 0.86200005
0.010167976 0.13394666 0.86100006
0.012016699 0.13394666 0.86100006
0.013881527 0.13410223 0.86200005
0.015732396 0.13410223 0.86200005
0.017583266 0.13410223 0.86200005
0.019434137 0.13410223 0.86200005
0.021285007 0.13410223 0.86200005
0.023135876 0.13410223 0.86200005
0.024986748 0.13410223 0.86200005
0.026837617 0.13410223 0.86200005
0.028721767 0.13425779 0.86300004
0.030574786 0.13425779 0.86300004
0.032427803 0.13425779 0.86300004
0.034280818 0.13425779 0.86300004
0.036175705 0.13441336 0.86400002
0.03803087 0.13441336 0.86400002
0.039886035 0.13441336 0.86400002
0.0417412 0.13441336 0.86400002
0.043596361 0.13441336 0.86400002
0.045504138 0.13456894 0.86500007
0.047361448 0.13456894 0.86500007
0.049275659 0.13472451 0.86600006
0.051135115 0.13472451 0.86600006
0.053055771 0.13488008 0.86700004
0.054854039 0.13472451 0.86600006
0.056713492 0.13472451 0.86600006
0.058505315 0.13456894 0.86500007
0.06036263 0.13456894 0.86500007
0.062148008 0.13441336 0.86400002
0.06400317 0.13441336 0.86400002
0.065858334 0.13441336 0.86400002
0.067713499 0.13441336 0.86400002
0.069568664 0.13441336 0.86400002
0.071423829 0.13441336 0.86400002
0.073278993 0.13441336 0.86400002
0.075047202 0.13425779 0.86300004
0.076989323 0.13441336 0.86400002
0.078753233 0.13425779 0.86300004
0.080699652 0.13441336 0.86400002
0.082459271 0.13425779 0.86300004
0.08431229 0.13425779 0.86300004
0.086165302 0.13425779 0.86300004
0.088120311 0.13441336 0.86400002
0.089975476 0.13441336 0.86400002
0.091830641 0.13441336 0.86400002
0.093685798 0.13441336 0.86400002
0.095540963 0.13441336 0.86400002
0.097396135 0.13441336 0.86400002
0.0992513 0.13441336 0.86400002
0.10110646 0.13441336 0.86400002
0.10308079 0.13456894 0.86500007
0.10505942 0.13472451 0.86600006
0.10691889 0.13472451 0.86600006
0.10890394 0.13488008 0.86700004
0.11076555 0.13488008 0.86700004
0.11262716 0.13488008 0.86700004
0.11448877 0.13488008 0.86700004
0.11635038 0.13488008 0.86700004
0.11821198 0.13488008 0.86700004
0.11993509 0.13472451 0.86600006
0.12179455 0.13472451 0.86600006
0.12365401 0.13472451 0.86600006
0.12565841 0.13488008 0.86700004
0.12752001 0.13488008 0.86700004
0.12938161 0.13488008 0.86700004
0.13109185 0.13472451 0.86600006
0.13310483 0.13488008 0.86700004
0.13496645 0.13488008 0.86700004
0.13682804 0.13488008 0.86700004
0.13868964 0.13488008 0.86700004
0.14055125 0.13488008 0.86700004
0.14241286 0.13488008 0.86700004
0.14427447 0.13488008 0.86700004
0.14613608 0.13488008 0.86700004
0.14782698 0.13472451 0.86600006
0.14968644 0.13472451 0.86600006
0.1515459 0.13472451 0.86600006
0.15340535 0.13472451 0.86600006
0.15526481 0.13472451 0.86600006
0.15694284 0.13456894 0.86500007
0.15880015 0.13456894 0.86500007
0.16084319 0.13472451 0.86600006
0.16289052 0.13488008 0.86700004
0.16475214 0.13488008 0.86700004
0.16680591 0.13503565 0.86800003
0.16866966 0.13503565 0.86800003
0.17053342 0.13503565 0.86800003
0.17239717 0.13503565 0.86800003
0.17446168 0.13519122 0.86900002
0.17632759 0.13519122 0.86900002
0.17798842 0.13503565 0.86800003
0.17985219 0.13503565 0.86800003
0.18150657 0.13488008 0.86700004
0.18357968 0.13503565 0.86800003
0.18544343 0.13503565 0.86800003
0.18730719 0.13503565 0.86800003
0.18938889 0.13519122 0.86900002
0.19125478 0.13519122 0.86900002
0.19312069 0.13519122 0.86900002
0.19498658 0.13519122 0.86900002
0.19685248 0.13519122 0.86900002
0.19894706 0.13534679 0.87000006
0.20081511 0.13534679 0.87000006
0.20268317 0.13534679 0.87000006
0.20431608 0.13519122 0.86900002
0.20618199 0.13519122 0.86900002
0.20828731 0.13534679 0.87000006
0.20991379 0.13519122 0.86900002
0.21177968 0.13519122 0.86900002
0.21364558 0.13519122 0.86900002
0.21551149 0.13519122 0.86900002
0.21737739 0.13519122 0.86900002
0.21924329 0.13519122 0.86900002
0.22110918 0.13519122 0.86900002
0.22323169 0.13534679 0.87000006
0.22509973 0.13534679 0.87000006
0.22722867 0.13550237 0.87100005
0.22909886 0.13550237 0.87100005
0.23096906 0.13550237 0.87100005
0.23310657 0.13565794 0.87200004
0.2349789 0.13565794 0.87200004
0.23685125 0.13565794 0.87200004
0.2392711 0.13596907 0.87400001
0.24114776 0.13596907 0.87400001
0.24274632 0.1358135 0.87300003
0.24490103 0.13596907 0.87400001
0.24677765 0.13596907 0.87400001
0.24865431 0.13596907 0.87400001
0.25053093 0.13596907 0.87400001
0.25240755 0.13596907 0.87400001
0.25457516 0.13612464 0.87500006
0.25645393 0.13612464 0.87500006
0.25833273 0.13612464 0.87500006
0.2599141 0.13596907 0.87400001
0.26179075 0.13596907 0.87400001
0.26366737 0.13596907 0.87400001
0.26584786 0.13612464 0.87500006
0.26772666 0.13612464 0.87500006
0.26960543 0.13612464 0.87500006
0.27148423 0.13612464 0.87500006
0.27336299 0.13612464 0.87500006
0.27524179 0.13612464 0.87500006
0.27712056 0.13612464 0.87500006
0.27899936 0.13612464 0.87500006
0.28055713 0.13596907 0.87400001
0.28243375 0.13596907 0.87400001
0.28463569 0.13612464 0.87500006
0.28651446 0.13612464 0.87500006
0.28905246 0.13643578 0.87700003
0.29093552 0.13643578 0.87700003
0.29315248 0.13659136 0.87800002
0.29503772 0.13659136 0.87800002
0.29692292 0.13659136 0.87800002
0.29846784 0.13643578 0.87700003
0.30000842 0.13628021 0.87600005
0.30188936 0.13628021 0.87600005
0.3037703 0.13628021 0.87600005
0.30530232 0.13612464 0.87500006
0.30718109 0.13612464 0.87500006
0.30976632 0.13643578 0.87700003
0.31200472 0.13659136 0.87800002
0.31388995 0.13659136 0.87800002
0.31577519 0.13659136 0.87800002
0.31766039 0.13659136 0.87800002
0.31954563 0.13659136 0.87800002
0.32143086 0.13659136 0.87800002
0.3233161 0.13659136 0.87800002
0.3252013 0.13659136 0.87800002
0.32708651 0.13659136 0.87800002
0.32934645 0.13674693 0.87900007
nan nan nan
nan nan nan
0.35482705 0.14483662 0.93100005
0.35950896 0.14592561 0.93800002
0.36345011 0.14670347 0.94300002
0.36586249 0.14685905 0.94400007
0.36866885 0.14717019 0.94600004
0.3714838 0.14748134 0.94800007
0.37430733 0.14779247 0.95000005
0.37674332 0.14794804 0.95100003
0.37918359 0.14810361 0.95200002
0.3812277 0.14810361 0.95200002
0.38286924 0.14794804 0.95100003
0.38450646 0.14779247 0.95000005
0.3857325 0.14748134 0.94800007
0.38654092 0.14701462 0.94500005
0.38692525 0.14639233 0.94100004
0.38522577 0.14499219 0.93200004
0.38348761 0.14359204 0.92300004
0.38129321 0.14203635 0.91300005
0.37737674 0.13985835 0.89900005
0.37550977 0.13845821 0.89000005
0.37572446 0.13783592 0.88600004
0.37464339 0.13674693 0.87900007
0.37481731 0.13612464 0.87500006
0.37540454 0.13565794 0.87200004
0.37597892 0.13519122 0.86900002
0.37654042 0.13472451 0.86600006
0.37665206 0.13410223 0.86200005
0.37542924 0.13301322 0.85500002
0.37505883 0.13223536 0.85000002
0.37511039 0.13161308 0.84600002
0.37469918 0.13083522 0.84100002
0.37381887 0.1299018 0.83500004
0.37291273 0.12896837 0.82900006
0.37333682 0.12850167 0.82600003
0.37465626 0.1283461 0.82500005
0.37551513 0.12803495 0.82300001
0.37544858 0.12741268 0.81900007
0.37582538 0.12694596 0.81600004
0.37526393 0.1261681 0.81100005
0.37561068 0.12570138 0.80800003
0.37547755 0.1250791 0.80400002
0.37673473 0.12492353 0.80300003
0.37751633 0.12461239 0.80100006
0.37781584 0.12414567 0.79800004
0.37810248 0.12367896 0.79500002
0.37837625 0.12321225 0.79200006
0.37911701 0.1229011 0.79000002
0.38033125 0.12274554 0.78900003
0.3805728 0.12227882 0.78600001
0.38177416 0.12212325 0.78500003
0.38297123 0.12196768 0.78400004
0.38416401 0.12181211 0.78300005
0.38535246 0.12165654 0.78200006
0.38604167 0.12134539 0.78000003
0.38721943 0.12118983 0.77900004
0.3873944 0.12072311 0.77600002
0.38805789 0.12041197 0.77400005
0.38871276 0.12010083 0.77200001
0.38986474 0.11994526 0.77100003
0.39101243 0.11978969 0.77000004
0.39215577 0.11963411 0.76900005
0.39278275 0.11932297 0.76700002
0.39442965 0.11932297 0.76700002
nan nan nan
nan nan nan
nan nan nan
nan nan nan
nan nan nan
nan nan nan
nan nan nan
nan nan nan
nan nan nan
nan nan nan
nan nan nan
nan nan nan
nan nan nan
nan nan nan
nan nan nan
nan nan nan
nan nan nan
nan nan nan
nan nan nan
nan nan nan
nan nan nan
nan nan nan
nan nan nan
nan nan nan
nan nan nan
nan nan nan
nan nan nan
nan nan nan
nan nan nan
nan nan nan
nan nan nan
nan nan nan
nan nan nan
nan nan nan
nan nan nan
nan nan nan
nan nan nan
nan nan nan
nan nan nan
nan nan nan
nan nan nan
-0.34736559 0.12854034 0.81500006
-0.34646377 0.12885576 0.81700003
-0.34470955 0.12885576 0.81700003
-0.3425355 0.12869805 0.81600004
-0.34120104 0.12885576 0.81700003
-0.33944678 0.12885576 0.81700003
-0.33810586 0.12901349 0.81800002
-0.33634946 0.12901349 0.81800002
-0.33500212 0.12917121 0.81900007
-0.33324358 0.12917121 0.81900007
-0.33188978 0.12932894 0.82000005
-0.33012912 0.12932894 0.82000005
-0.3291693 0.12964436 0.82200003
-0.32820094 0.12995981 0.82400006
-0.32682779 0.13011752 0.82500005
-0.32505637 0.13011752 0.82500005
-0.32406867 0.13043295 0.82700002
-0.32307237 0.13074839 0.82900006
-0.32090482 0.13059068 0.82800007
-0.31912693 0.13059068 0.82800007
-0.31696579 0.13043295 0.82700002
-0.31404671 0.12995981 0.82400006
-0.31076154 0.12932894 0.82000005
-0.308624 0.12917121 0.81900007
nan nan nan
-0.30547944 0.12932894 0.82000005
-0.30445954 0.12964436 0.82200003
-0.30269456 0.12964436 0.82200003
-0.30166176 0.12995981 0.82400006
-0.30025643 0.13011752 0.82500005
-0.29848501 0.13011752 0.82500005
-0.29707325 0.13027523 0.82600003
-0.29565716 0.13043295 0.82700002
-0.29352608 0.13027523 0.82600003
-0.29175255 0.13027523 0.82600003
-0.28962788 0.13011752 0.82500005
-0.28785646 0.13011752 0.82500005
-0.28643179 0.13027523 0.82600003
-0.28431362 0.13011752 0.82500005
-0.28254217 0.13011752 0.82500005
-0.28111109 0.13027523 0.82600003
-0.2793375 0.13027523 0.82600003
-0.27789998 0.13043295 0.82700002
-0.27679205 0.13074839 0.82900006
-0.27633899 0.13137926 0.83300006
-0.27718711 0.132641 0.84100002
-0.27603623 0.13295645 0.84300005
-0.27520204 0.1334296 0.84600002
-0.27370867 0.13358732 0.84700006
-0.27189004 0.13358732 0.84700006
-0.27039024 0.13374504 0.84800005
nan nan nan
nan nan nan
nan nan nan
nan nan nan
nan nan nan
nan nan nan
nan nan nan
nan nan nan
nan nan nan
nan nan nan
nan nan nan
nan nan nan
nan nan nan
nan nan nan
nan nan nan
nan nan nan
nan nan nan
nan nan nan
nan nan nan
nan nan nan
nan nan nan
nan nan nan
nan nan nan
nan nan nan
-0.22672622 0.13484906 0.85500002
-0.22515342 0.13500679 0.85600007
-0.22357631 0.1351645 0.85700005
-0.22199489 0.13532221 0.85800004
-0.22040921 0.13547994 0.85900003
-0.21856476 0.13547994 0.85900003
-0.21672036 0.13547994 0.85900003
-0.21487594 0.13547994 0.85900003
-0.21327949 0.13563766 0.86000001
-0.2114329 0.13563766 0.86000001
-0.20934263 0.13547994 0.85900003
-0.20749821 0.13547994 0.85900003
-0.20565379 0.13547994 0.85900003
-0.20357209 0.13532221 0.85800004
-0.20149469 0.1351645 0.85700005
-0.1994216 0.13500679 0.85600007
-0.19735277 0.13484906 0.85500002
-0.19551693 0.13484906 0.85500002
-0.19368109 0.13484906 0.85500002
-0.19206965 0.13500679 0.85600007
-0.19023167 0.13500679 0.85600007
-0.18861376 0.1351645 0.85700005
-0.18677363 0.1351645 0.85700005
-0.18493348 0.1351645 0.85700005
-0.18309335 0.1351645 0.85700005
-0.18125321 0.1351645 0.85700005
-0.17920373 0.13500679 0.85600007
-0.17715855 0.13484906 0.85500002
-0.1753227 0.13484906 0.85500002
-0.17308106 0.13453363 0.85300004
-0.17104875 0.13437591 0.85200006
-0.16921934 0.13437591 0.85200006
-0.16719347 0.13421819 0.85100001
-0.16536622 0.13421819 0.85100001
-0.16353896 0.13421819 0.85100001
-0.1615217 0.13406047 0.85000002
-0.15969659 0.13406047 0.85000002
-0.15787148 0.13406047 0.85000002
-0.15604638 0.13406047 0.85000002
-0.15403984 0.13390276 0.84900004
-0.15203759 0.13374504 0.84800005
-0.15021679 0.13374504 0.84800005
-0.14839597 0.13374504 0.84800005
-0.14640233 0.13358732 0.84700006
-0.14458367 0.13358732 0.84700006
-0.142765 0.13358732 0.84700006
-0.14094634 0.13358732 0.84700006
-0.1389634 0.1334296 0.84600002
-0.13714689 0.1334296 0.84600002
-0.13549034 0.13358732 0.84700006
-0.1338295 0.13374504 0.84800005
-0.13185303 0.13358732 0.84700006
-0.13018788 0.13374504 0.84800005
-0.12851845 0.13390276 0.84900004
-0.12699395 0.13421819 0.85100001
-0.12546086 0.13453363 0.85300004
-0.12377425 0.13469134 0.85400003
-0.12222613 0.13500679 0.85600007
-0.12052879 0.1351645 0.85700005
-0.11868865 0.1351645 0.85700005
-0.11684853 0.1351645 0.85700005
-0.11500839 0.1351645 0.85700005
-0.11303621 0.13500679 0.85600007
-0.11106831 0.13484906 0.85500002
-0.10923246 0.13484906 0.85500002
-0.10739662 0.13484906 0.85500002
-0.10568426 0.13500679 0.85600007
-0.10384627 0.13500679 0.85600007
-0.10212745 0.1351645 0.85700005
-0.10028731 0.1351645 0.85700005
-0.098447181 0.1351645 0.85700005
-0.096719772 0.13532221 0.85800004
-0.094766907 0.1351645 0.85700005
-0.092926778 0.1351645 0.85700005
-0.091192931 0.13532221 0.85800004
-0.089350648 0.13532221 0.85800004
-0.087508366 0.13532221 0.85800004
-0.085666083 0.13532221 0.85800004
-0.083726108 0.1351645 0.85700005
-0.081981517 0.13532221 0.85800004
-0.080139235 0.13532221 0.85800004
-0.078205697 0.1351645 0.85700005
-0.076365575 0.1351645 0.85700005
-0.074525438 0.1351645 0.85700005
-0.072685301 0.1351645 0.85700005
-0.070845164 0.1351645 0.85700005
-0.069005035 0.1351645 0.85700005
-0.067164898 0.1351645 0.85700005
-0.065324761 0.1351645 0.85700005
-0.063558705 0.13532221 0.85800004
-0.061716426 0.13532221 0.85800004
-0.059874143 0.13532221 0.85800004
-0.058031861 0.13532221 0.85800004
-0.056255069 0.13547994 0.85900003
-0.054410644 0.13547994 0.85900003
-0.052566212 0.13547994 0.85900003
-0.050721783 0.13547994 0.85900003
-0.048877355 0.13547994 0.85900003
-0.047032926 0.13547994 0.85900003
-0.045188498 0.13547994 0.85900003
-0.043344069 0.13547994 0.85900003
-0.041547954 0.13563766 0.86000001
-0.039701376 0.13563766 0.86000001
-0.037854802 0.13563766 0.86000001
-0.036008224 0.13563766 0.86000001
-0.03416165 0.13563766 0.86000001
-0.032277498 0.13547994 0.85900003
-0.030433072 0.13547994 0.85900003
-0.028588641 0.13547994 0.85900003
-0.026744215 0.13547994 0.85900003
-0.024899786 0.13547994 0.85900003
-0.023055358 0.13547994 0.85900003
-0.021210929 0.13547994 0.85900003
-0.019366501 0.13547994 0.85900003
-0.017501673 0.13532221 0.85800004
-0.015641142 0.1351645 0.85700005
-0.013801008 0.1351645 0.85700005
-0.011960872 0.1351645 0.85700005
-0.010120738 0.1351645 0.85700005
-0.0082902657 0.13532221 0.85800004
-0.0064554997 0.13547994 0.85900003
-0.0046164393 0.13563766 0.86000001
-0.0027763052 0.1359531 0.86200005
-0.00092543504 0.1359531 0.86200005
0.00092543504 0.1359531 0.86200005
0.0027763052 0.1359531 0.86200005
0.0046271752 0.1359531 0.86200005
0.0064705303 0.13579537 0.86100006
0.0083289156 0.1359531 0.86200005
0.010167976 0.13579537 0.86100006
0.012016699 0.13579537 0.86100006
0.013881527 0.1359531 0.86200005
0.015732396 0.1359531 0.86200005
0.017583266 0.1359531 0.86200005
0.019434137 0.1359531 0.86200005
0.021285007 0.1359531 0.86200005
0.023135876 0.1359531 0.86200005
0.024986748 0.1359531 0.86200005
0.026837617 0.1359531 0.86200005
0.028721767 0.13611081 0.86300004
0.030574786 0.13611081 0.86300004
0.032427803 0.13611081 0.86300004
0.034320541 0.13626853 0.86400002
0.036175705 0.13626853 0.86400002
0.03803087 0.13626853 0.86400002
0.039886035 0.13626853 0.86400002
0.041789513 0.13642626 0.86500007
0.043646824 0.13642626 0.86500007
0.045504138 0.13642626 0.86500007
0.047416199 0.13658397 0.86600006
0.049275659 0.13658397 0.86600006
0.051135115 0.13658397 0.86600006
0.053055771 0.13674168 0.86700004
0.054854039 0.13658397 0.86600006
0.056648005 0.13642626 0.86500007
0.058505315 0.13642626 0.86500007
0.060292844 0.13626853 0.86400002
0.062148008 0.13626853 0.86400002
0.06400317 0.13626853 0.86400002
0.065782115 0.13611081 0.86300004
0.067635134 0.13611081 0.86300004
0.069568664 0.13626853 0.86400002
0.071423829 0.13626853 0.86400002
0.073278993 0.13626853 0.86400002
0.075134158 0.13626853 0.86400002
0.077078439 0.13642626 0.86500007
0.078844488 0.13626853 0.86400002
0.080699652 0.13626853 0.86400002
0.082554817 0.13626853 0.86400002
0.084409982 0.13626853 0.86400002
0.086265139 0.13626853 0.86400002
0.088222302 0.13642626 0.86500007
0.09007962 0.13642626 0.86500007
0.091936931 0.13642626 0.86500007
0.093685798 0.13626853 0.86400002
0.095651552 0.13642626 0.86500007
0.09762159 0.13658397 0.86600006
0.099366181 0.13642626 0.86500007
0.10110646 0.13626853 0.86400002
0.10319997 0.13658397 0.86600006
0.10505942 0.13658397 0.86600006
0.10704235 0.13674168 0.86700004
0.10890394 0.13674168 0.86700004
0.11076555 0.13674168 0.86700004
0.11262716 0.13674168 0.86700004
0.11448877 0.13674168 0.86700004
0.11635038 0.13674168 0.86700004
0.11821198 0.13674168 0.86700004
0.12007358 0.13674168 0.86700004
0.12193519 0.13674168 0.86700004
0.1237968 0.13674168 0.86700004
0.12565841 0.13674168 0.86700004
0.12752001 0.13674168 0.86700004
0.12938161 0.13674168 0.86700004
0.13124323 0.13674168 0.86700004
0.13310483 0.13674168 0.86700004
0.13496645 0.13674168 0.86700004
0.13682804 0.13674168 0.86700004
0.13868964 0.13674168 0.86700004
0.14055125 0.13674168 0.86700004
0.14241286 0.13674168 0.86700004
0.14427447 0.13674168 0.86700004
0.14630462 0.1368994 0.86800003
0.14816839 0.1368994 0.86800003
0.14985929 0.13674168 0.86700004
0.15172088 0.13674168 0.86700004
0.15340535 0.13658397 0.86600006
0.15526481 0.13658397 0.86600006
0.15694284 0.13642626 0.86500007
0.15880015 0.13642626 0.86500007
0.16084319 0.13658397 0.86600006
0.16270265 0.13658397 0.86600006
0.16475214 0.13674168 0.86700004
0.16661373 0.13674168 0.86700004
0.16866966 0.1368994 0.86800003
0.17053342 0.1368994 0.86800003
0.17259578 0.13705711 0.86900002
0.17446168 0.13705711 0.86900002
0.17632759 0.13705711 0.86900002
0.17798842 0.1368994 0.86800003
0.17985219 0.1368994 0.86800003
0.18150657 0.13674168 0.86700004
0.18357968 0.1368994 0.86800003
0.18544343 0.1368994 0.86800003
0.18752298 0.13705711 0.86900002
0.18938889 0.13705711 0.86900002
0.19147488 0.13721484 0.87000006
0.19334292 0.13721484 0.87000006
0.19521098 0.13721484 0.87000006
0.19685248 0.13705711 0.86900002
0.19917573 0.13737255 0.87100005
0.20104593 0.13737255 0.87100005
0.20291613 0.13737255 0.87100005
0.20455121 0.13721484 0.87000006
0.20665652 0.13737255 0.87100005
0.20876613 0.13753027 0.87200004
0.21063846 0.13753027 0.87200004
0.2122671 0.13737255 0.87100005
0.2141373 0.13737255 0.87100005
0.21600749 0.13737255 0.87100005
0.2178777 0.13737255 0.87100005
0.21974789 0.13737255 0.87100005
0.22161807 0.13737255 0.87100005
0.22374485 0.13753027 0.87200004
0.22535846 0.13737255 0.87100005
0.22722867 0.13737255 0.87100005
0.22909886 0.13737255 0.87100005
0.23123424 0.13753027 0.87200004
0.23310657 0.13753027 0.87200004
0.23524836 0.137688 0.87300003
0.23739448 0.13784571 0.87400001
0.23954488 0.13800344 0.87500006
0.24142368 0.13800344 0.87500006
0.24330245 0.13800344 0.87500006
0.24518125 0.13800344 0.87500006
0.24706003 0.13800344 0.87500006
0.24893883 0.13800344 0.87500006
0.2508176 0.13800344 0.87500006
0.25269637 0.13800344 0.87500006
0.25486609 0.13816115 0.87600005
0.25674704 0.13816115 0.87600005
0.25862798 0.13816115 0.87600005
0.2602115 0.13800344 0.87500006
0.2620903 0.13800344 0.87500006
0.26396906 0.13800344 0.87500006
0.26615167 0.13816115 0.87600005
0.26772666 0.13800344 0.87500006
0.26960543 0.13800344 0.87500006
0.27148423 0.13800344 0.87500006
0.27336299 0.13800344 0.87500006
0.27524179 0.13800344 0.87500006
0.27712056 0.13800344 0.87500006
0.27899936 0.13800344 0.87500006
0.28119913 0.13816115 0.87600005
0.28340319 0.13831887 0.87700003
0.28528628 0.13831887 0.87700003
0.28749681 0.13847658 0.87800002
0.28971165 0.13863431 0.87900007
0.29159901 0.13863431 0.87900007
0.29348639 0.13863431 0.87900007
0.29537374 0.13863431 0.87900007
0.29692292 0.13847658 0.87800002
0.29880816 0.13847658 0.87800002
0.30069336 0.13847658 0.87800002
0.3025786 0.13847658 0.87800002
0.30446383 0.13847658 0.87800002
0.30634907 0.13847658 0.87800002
0.30823427 0.13847658 0.87800002
0.31011951 0.13847658 0.87800002
0.31236011 0.13863431 0.87900007
0.31460497 0.13879202 0.88000005
0.31649449 0.13879202 0.88000005
0.31838402 0.13879202 0.88000005
0.32027355 0.13879202 0.88000005
0.32179695 0.13863431 0.87900007
0.32405257 0.13879202 0.88000005
0.3259421 0.13879202 0.88000005
0.32894918 0.13926516 0.88300002
0.33121988 0.13942289 0.88400006
0.33500212 0.14021149 0.88900006
0.34941724 0.14541619 0.92200005
0.35330254 0.14620477 0.92700005
0.35835916 0.14746653 0.93500006
0.36229387 0.14825511 0.94000006
0.36508736 0.14857055 0.94200003
0.36749968 0.14872827 0.94300002
0.36991635 0.148886 0.94400007
0.3727313 0.14920142 0.94600004
0.37515867 0.14935914 0.94700003
0.37759039 0.14951687 0.94800007
0.38002637 0.14967458 0.94900006
0.38166144 0.14951687 0.94800007
0.38410172 0.14967458 0.94900006
0.38532558 0.14935914 0.94700003
0.38613188 0.148886 0.94400007
0.38610289 0.1480974 0.93900007
0.38439912 0.14667793 0.93000007
0.38348761 0.1455739 0.92300004
nan nan nan
0.37695697 0.14163095 0.89800006
0.374244 0.13989605 0.88700002
0.37445226 0.13926516 0.88300002
0.37379092 0.13831887 0.87700003
0.37438893 0.13784571 0.87400001
0.37497404 0.13737255 0.87100005
0.37597892 0.13705711 0.86900002
0.37610561 0.13642626 0.86500007
0.37577817 0.13563766 0.86000001
0.37455106 0.13453363 0.85300004
0.37417635 0.13374504 0.84800005
0.37422359 0.13311416 0.84400004
0.37380812 0.13232557 0.83900005
0.3724758 0.13122155 0.83200002
0.37201306 0.13043295 0.82700002
0.37288484 0.13011752 0.82500005
0.37374797 0.12980208 0.82300001
0.37505886 0.12964436 0.82200003
0.37499014 0.12901349 0.81800002
0.37444368 0.12822489 0.81300002
0.37433848 0.12759402 0.80900002
0.37468094 0.12712088 0.80600005
0.37501055 0.12664771 0.80300003
0.37579641 0.12633228 0.80100006
0.37610239 0.12585913 0.79800004
0.37639546 0.12538597 0.79500002
0.3766757 0.12491282 0.79200006
0.37742075 0.12459738 0.79000002
0.37863714 0.12443966 0.78900003
0.3793672 0.12412423 0.78700006
0.38008863 0.12380879 0.78500003
0.38128784 0.12365107 0.78400004
0.38248274 0.12349336 0.78300005
0.38367337 0.12333564 0.78200006
0.38436687 0.12302019 0.78000003
0.38554674 0.12286248 0.77900004
0.38622525 0.12254704 0.77700001
0.38689518 0.12223161 0.77500004
0.38755652 0.12191617 0.77300006
0.38820925 0.12160073 0.77100003
0.38935909 0.12144302 0.77000004
0.39050463 0.1212853 0.76900005
0.39164579 0.12112758 0.76800001
0.39278275 0.12096986 0.76700002
0.39391541 0.12081214 0.76600003
nan nan nan
nan nan nan
nan nan nan
nan nan nan
nan nan nan
nan nan nan
nan nan nan
nan nan nan
nan nan nan
nan nan nan
nan nan nan
nan nan nan
nan nan nan
nan nan nan
nan nan nan
nan nan nan
nan nan nan
nan nan nan
nan nan nan
nan nan nan
nan nan nan
nan nan nan
nan nan nan
nan nan nan
nan nan nan
nan nan nan
nan nan nan
nan nan nan
nan nan nan
nan nan nan
nan nan nan
nan nan nan
nan nan nan
nan nan nan
nan nan nan
nan nan nan
nan nan nan
nan nan nan
nan nan nan
nan nan nan
nan nan nan
-0.34736559 0.1302903 0.81500006
-0.34646377 0.13061002 0.81700003
-0.34470955 0.13061002 0.81700003
-0.34295526 0.13061002 0.81700003
-0.34120104 0.13061002 0.81700003
-0.33986226 0.13076988 0.81800002
-0.33810586 0.13076988 0.81800002
-0.33634946 0.13076988 0.81800002
-0.33500212 0.13092975 0.81900007
-0.33324358 0.13092975 0.81900007
-0.33188978 0.13108961 0.82000005
-0.33012912 0.13108961 0.82000005
-0.3291693 0.13140935 0.82200003
-0.32780263 0.13156921 0.82300001
-0.32643163 0.13172908 0.82400006
-0.32505637 0.13188894 0.82500005
-0.32406867 0.13220868 0.82700002
-0.32307237 0.13252841 0.82900006
-0.32129237 0.13252841 0.82900006
-0.31951237 0.13252841 0.82900006
-0.31696579 0.13220868 0.82700002
-0.31328446 0.13140935 0.82200003
-0.31000355 0.13076988 0.81800002
nan nan nan
-0.30649078 0.13076988 0.81800002
-0.30473435 0.13076988 0.81800002
-0.30297798 0.13076988 0.81800002
-0.30195808 0.13108961 0.82000005
-0.30092958 0.13140935 0.82200003
-0.29989251 0.13172908 0.82400006
-0.29848501 0.13188894 0.82500005
-0.29671359 0.13188894 0.82500005
-0.29529965 0.13204882 0.82600003
-0.29317075 0.13188894 0.82500005
-0.29139933 0.13188894 0.82500005
-0.28962788 0.13188894 0.82500005
-0.28750756 0.13172908 0.82400006
-0.28573826 0.13172908 0.82400006
-0.28362435 0.13156921 0.82300001
-0.28185722 0.13156921 0.82300001
-0.28009009 0.13156921 0.82300001
-0.27832296 0.13156921 0.82300001
-0.27689189 0.13172908 0.82400006
-0.27579039 0.13204882 0.82600003
-0.27501202 0.13252841 0.82900006
-0.27520958 0.1334876 0.83500004
-0.27538133 0.13444678 0.84100002
-0.27422616 0.13476652 0.84300005
-0.27241609 0.13476652 0.84300005
-0.27028501 0.13460666 0.84200007
-0.26783937 0.13428693 0.84000003
-0.26508561 0.13380733 0.83700001
nan nan nan
nan nan nan
nan nan nan
nan nan nan
nan nan nan
nan nan nan
nan nan nan
nan nan nan
nan nan nan
nan nan nan
nan nan nan
nan nan nan
nan nan nan
nan nan nan
nan nan nan
nan nan nan
nan nan nan
nan nan nan
nan nan nan
nan nan nan
nan nan nan
nan nan nan
nan nan nan
-0.22672622 0.13668491 0.85500002
-0.22489037 0.13668491 0.85500002
-0.22331543 0.13684477 0.85600007
-0.22147743 0.13684477 0.85600007
-0.21989605 0.13700464 0.85700005
-0.21805589 0.13700464 0.85700005
-0.21621577 0.13700464 0.85700005
-0.21437564 0.13700464 0.85700005
-0.2125355 0.13700464 0.85700005
-0.21069536 0.13700464 0.85700005
-0.20885523 0.13700464 0.85700005
-0.20677355 0.13684477 0.85600007
-0.20493557 0.13684477 0.85600007
-0.2028603 0.13668491 0.85500002
-0.20102446 0.13668491 0.85500002
-0.19918862 0.13668491 0.85500002
-0.19735277 0.13668491 0.85500002
-0.19551693 0.13668491 0.85500002
-0.19368109 0.13668491 0.85500002
-0.19184527 0.13668491 0.85500002
-0.19000942 0.13668491 0.85500002
-0.18817358 0.13668491 0.85500002
-0.18655568 0.13684477 0.85600007
-0.18493348 0.13700464 0.85700005
-0.18309335 0.13700464 0.85700005
-0.18125321 0.13700464 0.85700005
-0.17941308 0.13700464 0.85700005
-0.17736575 0.13684477 0.85600007
-0.1753227 0.13668491 0.85500002
-0.17328395 0.13652503 0.85400003
-0.17104875 0.13620532 0.85200006
-0.16921934 0.13620532 0.85200006
-0.16738994 0.13620532 0.85200006
-0.16556054 0.13620532 0.85200006
-0.16373114 0.13620532 0.85200006
-0.16171172 0.13604544 0.85100001
-0.15988447 0.13604544 0.85100001
-0.15805721 0.13604544 0.85100001
-0.15622996 0.13604544 0.85100001
-0.15422128 0.13588558 0.85000002
-0.15239617 0.13588558 0.85000002
-0.15057106 0.13588558 0.85000002
-0.14874595 0.13588558 0.85000002
-0.14674802 0.13572571 0.84900004
-0.14492506 0.13572571 0.84900004
-0.14293355 0.13556585 0.84800005
-0.14111274 0.13556585 0.84800005
-0.13929193 0.13556585 0.84800005
-0.13763323 0.13572571 0.84900004
-0.13581027 0.13572571 0.84900004
-0.13414513 0.13588558 0.85000002
-0.13216437 0.13572571 0.84900004
-0.13049494 0.13588558 0.85000002
-0.12866983 0.13588558 0.85000002
-0.12714319 0.13620532 0.85200006
-0.12531379 0.13620532 0.85200006
-0.12362932 0.13636518 0.85300004
-0.12208334 0.13668491 0.85500002
-0.12052879 0.13700464 0.85700005
-0.11868865 0.13700464 0.85700005
-0.11684853 0.13700464 0.85700005
-0.11487419 0.13684477 0.85600007
-0.11303621 0.13684477 0.85600007
-0.11119822 0.13684477 0.85600007
-0.10923246 0.13668491 0.85500002
-0.10739662 0.13668491 0.85500002
-0.10556079 0.13668491 0.85500002
-0.10384627 0.13684477 0.85600007
-0.10200828 0.13684477 0.85600007
-0.10017029 0.13684477 0.85600007
-0.098447181 0.13700464 0.85700005
-0.096607044 0.13700464 0.85700005
-0.094766907 0.13700464 0.85700005
-0.092926778 0.13700464 0.85700005
-0.091086648 0.13700464 0.85700005
-0.089246511 0.13700464 0.85700005
-0.087406375 0.13700464 0.85700005
-0.085566238 0.13700464 0.85700005
-0.083726108 0.13700464 0.85700005
-0.081885971 0.13700464 0.85700005
-0.080045834 0.13700464 0.85700005
-0.07811445 0.13684477 0.85600007
-0.076276466 0.13684477 0.85600007
-0.074525438 0.13700464 0.85700005
-0.072685301 0.13700464 0.85700005
-0.070845164 0.13700464 0.85700005
-0.069005035 0.13700464 0.85700005
-0.067164898 0.13700464 0.85700005
-0.065324761 0.13700464 0.85700005
-0.063484624 0.13700464 0.85700005
-0.061644498 0.13700464 0.85700005
-0.059804361 0.13700464 0.85700005
-0.058031861 0.1371645 0.85800004
-0.056189578 0.1371645 0.85800004
-0.054410644 0.13732436 0.85900003
-0.052566212 0.13732436 0.85900003
-0.050721783 0.13732436 0.85900003
-0.048877355 0.13732436 0.85900003
-0.046978172 0.1371645 0.85800004
-0.045188498 0.13732436 0.85900003
-0.043344069 0.13732436 0.85900003
-0.041547954 0.13748422 0.86000001
-0.039701376 0.13748422 0.86000001
-0.037854802 0.13748422 0.86000001
-0.036050096 0.1376441 0.86100006
-0.03416165 0.13748422 0.86000001
-0.032315072 0.13748422 0.86000001
-0.030468499 0.13748422 0.86000001
-0.028588641 0.13732436 0.85900003
-0.026744215 0.13732436 0.85900003
-0.024928773 0.13748422 0.86000001
-0.023055358 0.13732436 0.85900003
-0.021210929 0.13732436 0.85900003
-0.019366501 0.13732436 0.85900003
-0.017522072 0.13732436 0.85900003
-0.015677644 0.13732436 0.85900003
-0.013817111 0.1371645 0.85800004
-0.011974828 0.1371645 0.85800004
-0.010144357 0.13732436 0.85900003
-0.0083095906 0.13748422 0.86000001
-0.006463015 0.13748422 0.86000001
-0.0046271752 0.13780397 0.86200005
-0.0027763052 0.13780397 0.86200005
-0.00092650863 0.13796383 0.86300004
0.00092650863 0.13796383 0.86300004
0.0027763052 0.13780397 0.86200005
0.0046271752 0.13780397 0.86200005
0.0064780451 0.13780397 0.86200005
0.0083289156 0.13780397 0.86200005
0.010167976 0.1376441 0.86100006
0.012030656 0.13780397 0.86200005
0.013881527 0.13780397 0.86200005
0.015732396 0.13780397 0.86200005
0.017603664 0.13796383 0.86300004
0.019456683 0.13796383 0.86300004
0.021285007 0.13780397 0.86200005
0.023135876 0.13780397 0.86200005
0.024986748 0.13780397 0.86200005
0.026868751 0.13796383 0.86300004
0.028721767 0.13796383 0.86300004
0.030610213 0.13812369 0.86400002
0.032465376 0.13812369 0.86400002
0.034320541 0.13812369 0.86400002
0.036217578 0.13828357 0.86500007
0.03803087 0.13812369 0.86400002
0.039886035 0.13812369 0.86400002
0.041789513 0.13828357 0.86500007
0.043646824 0.13828357 0.86500007
0.045556743 0.13844343 0.86600006
0.047416199 0.13844343 0.86600006
0.049332559 0.13860328 0.86700004
0.051194165 0.13860328 0.86700004
0.053055771 0.13860328 0.86700004
0.054854039 0.13844343 0.86600006
0.056713492 0.13844343 0.86600006
0.058505315 0.13828357 0.86500007
0.06036263 0.13828357 0.86500007
0.062148008 0.13812369 0.86400002
0.063929096 0.13796383 0.86300004
0.065858334 0.13812369 0.86400002
0.067635134 0.13796383 0.86300004
0.069568664 0.13812369 0.86400002
0.071423829 0.13812369 0.86400002
0.073278993 0.13812369 0.86400002
0.075221121 0.13828357 0.86500007
0.077167541 0.13844343 0.86600006
0.079026997 0.13844343 0.86600006
0.080886461 0.13844343 0.86600006
0.082745917 0.13844343 0.86600006
0.084507681 0.13828357 0.86500007
0.08646483 0.13844343 0.86600006
0.088324293 0.13844343 0.86600006
0.090183757 0.13844343 0.86600006
0.092043214 0.13844343 0.86600006
0.093794234 0.13828357 0.86500007
0.095651552 0.13828357 0.86500007
0.09762159 0.13844343 0.86600006
0.099481046 0.13844343 0.86600006
0.10122348 0.13828357 0.86500007
0.10319997 0.13844343 0.86600006
0.10518074 0.13860328 0.86700004
0.10704235 0.13860328 0.86700004
0.10890394 0.13860328 0.86700004
0.11076555 0.13860328 0.86700004
0.11275706 0.13876316 0.86800003
0.11448877 0.13860328 0.86700004
0.11635038 0.13860328 0.86700004
0.11834833 0.13876316 0.86800003
0.12021207 0.13876316 0.86800003
0.12207583 0.13876316 0.86800003
0.12393958 0.13876316 0.86800003
0.12580334 0.13876316 0.86800003
0.12766708 0.13876316 0.86800003
0.12953085 0.13876316 0.86800003
0.13139459 0.13876316 0.86800003
0.13325836 0.13876316 0.86800003
0.13512211 0.13876316 0.86800003
0.13698585 0.13876316 0.86800003
0.1388496 0.13876316 0.86800003
0.14071336 0.13876316 0.86800003
0.14257711 0.13876316 0.86800003
0.14460728 0.13892302 0.86900002
0.14647318 0.13892302 0.86900002
0.14833908 0.13892302 0.86900002
0.15020499 0.13892302 0.86900002
0.15189588 0.13876316 0.86800003
0.1535825 0.13860328 0.86700004
0.1554441 0.13860328 0.86700004
0.1573057 0.13860328 0.86700004
0.15916732 0.13860328 0.86700004
0.16102892 0.13860328 0.86700004
0.16289052 0.13860328 0.86700004
0.16494216 0.13876316 0.86800003
0.16699807 0.13892302 0.86900002
0.16886397 0.13892302 0.86900002
0.17072988 0.13892302 0.86900002
0.17259578 0.13892302 0.86900002
0.17446168 0.13892302 0.86900002
0.17632759 0.13892302 0.86900002
0.17819348 0.13892302 0.86900002
0.18005939 0.13892302 0.86900002
0.18192527 0.13892302 0.86900002
0.18379118 0.13892302 0.86900002
0.18565708 0.13892302 0.86900002
0.18752298 0.13892302 0.86900002
0.18960683 0.13908289 0.87000006
0.19169496 0.13924275 0.87100005
0.19356516 0.13924275 0.87100005
0.19543536 0.13924275 0.87100005
0.19730555 0.13924275 0.87100005
0.1994044 0.13940261 0.87200004
0.20127675 0.13940261 0.87200004
0.2031491 0.13940261 0.87200004
0.20502144 0.13940261 0.87200004
0.20689379 0.13940261 0.87200004
0.20876613 0.13940261 0.87200004
0.21063846 0.13940261 0.87200004
0.21251079 0.13940261 0.87200004
0.21438314 0.13940261 0.87200004
0.21625549 0.13940261 0.87200004
0.21812785 0.13940261 0.87200004
0.22000018 0.13940261 0.87200004
0.22187251 0.13940261 0.87200004
0.22374485 0.13940261 0.87200004
0.22561719 0.13940261 0.87200004
0.22748955 0.13940261 0.87200004
0.2296249 0.13956249 0.87300003
0.2314994 0.13956249 0.87300003
0.23390855 0.13988222 0.87500006
0.23578732 0.13988222 0.87500006
0.23766612 0.13988222 0.87500006
0.23954488 0.13988222 0.87500006
0.24142368 0.13988222 0.87500006
0.24330245 0.13988222 0.87500006
0.24518125 0.13988222 0.87500006
0.24706003 0.13988222 0.87500006
0.24893883 0.13988222 0.87500006
0.25110424 0.14004208 0.87600005
0.25327396 0.14020194 0.87700003
0.25544798 0.1403618 0.87800002
0.25733319 0.1403618 0.87800002
0.25921842 0.1403618 0.87800002
0.26110366 0.1403618 0.87800002
0.2629889 0.1403618 0.87800002
0.2648741 0.1403618 0.87800002
0.26675931 0.1403618 0.87800002
0.26864454 0.1403618 0.87800002
0.27022165 0.14020194 0.87700003
0.27179447 0.14004208 0.87600005
0.27367541 0.14004208 0.87600005
0.27555636 0.14004208 0.87600005
0.27775398 0.14020194 0.87700003
0.27995592 0.1403618 0.87800002
0.28184113 0.1403618 0.87800002
0.28372633 0.1403618 0.87800002
0.28561157 0.1403618 0.87800002
0.28782424 0.14052168 0.87900007
0.29004124 0.14068155 0.88000005
0.29193074 0.14068155 0.88000005
0.29382026 0.14068155 0.88000005
0.29570979 0.14068155 0.88000005
0.29726112 0.14052168 0.87900007
0.2991485 0.14052168 0.87900007
0.30103585 0.14052168 0.87900007
0.30292323 0.14052168 0.87900007
0.30481061 0.14052168 0.87900007
0.30669799 0.14052168 0.87900007
0.30858535 0.14052168 0.87900007
0.31082594 0.14068155 0.88000005
0.31271547 0.14068155 0.88000005
0.31460497 0.14068155 0.88000005
0.31685415 0.14084141 0.88100004
0.31838402 0.14068155 0.88000005
0.32027355 0.14068155 0.88000005
0.32216305 0.14068155 0.88000005
0.32478905 0.14100127 0.88200003
0.32705325 0.14116113 0.88300002
0.3300668 0.14164074 0.88600004
0.33309329 0.14212033 0.88900006
0.33726308 0.14307952 0.89500004
0.34828028 0.14691629 0.91900003
0.35254028 0.14787549 0.92500007
0.35644281 0.14867482 0.93000007
0.3607522 0.149634 0.93600005
0.36353707 0.14995372 0.93800002
0.36594087 0.1501136 0.93900007
0.3683489 0.15027347 0.94000006
0.37115529 0.15059319 0.94200003
0.37357405 0.15075305 0.94300002
0.37599719 0.15091293 0.94400007
0.37842456 0.15107279 0.94500005
0.38085625 0.15123266 0.94600004
0.38288748 0.15123266 0.94600004
0.3845118 0.15107279 0.94500005
0.38572282 0.15075305 0.94300002
0.38569167 0.14995372 0.93800002
0.38439912 0.14867482 0.93000007
nan nan nan
nan nan nan
nan nan nan
0.37255633 0.14116113 0.88300002
0.37233192 0.1403618 0.87800002
0.37251228 0.13972235 0.87400001
0.37353221 0.13940261 0.87200004
0.37411299 0.13892302 0.86900002
0.37554628 0.13876316 0.86800003
0.37567079 0.13812369 0.86400002
0.37446731 0.13700464 0.85700005
0.37367284 0.13604544 0.85100001
0.37329385 0.13524611 0.84600002
0.37333682 0.13460666 0.84200007
0.37291703 0.13380733 0.83700001
0.37202811 0.13284813 0.83100003
0.37156323 0.13204882 0.82600003
0.37198088 0.13156921 0.82300001
0.37329388 0.13140935 0.82200003
0.37414631 0.13108961 0.82000005
0.3740733 0.13045016 0.81600004
0.37398311 0.12981069 0.81200004
0.37387577 0.12917124 0.80800003
0.37468094 0.1288515 0.80600005
0.37501055 0.12837191 0.80300003
0.37532723 0.1278923 0.80000001
0.37563109 0.12741272 0.79700005
0.37544855 0.12677325 0.79300004
0.37572449 0.12629366 0.79000002
0.37694299 0.12613378 0.78900003
0.37767735 0.12581407 0.78700006
0.37888512 0.12565419 0.78600001
0.37960443 0.12533446 0.78400004
0.3808015 0.1251746 0.78300005
0.38150576 0.12485486 0.78100002
0.3826921 0.124695 0.78000003
0.38387412 0.12453514 0.77900004
0.38455689 0.1242154 0.77700001
0.38523114 0.12389567 0.77500004
0.38589674 0.12357595 0.77300006
0.38655376 0.12325621 0.77100003
0.38720223 0.12293649 0.76900005
0.38834774 0.12277661 0.76800001
0.3899968 0.12277661 0.76800001
0.39113584 0.12261675 0.76700002
0.39227065 0.12245689 0.76600003
0.39340118 0.12229702 0.76500005
nan nan nan
nan nan nan
nan nan nan
nan nan nan
nan nan nan
nan nan nan
nan nan nan
nan nan nan
nan nan nan
nan nan nan
nan nan nan
nan nan nan
nan nan nan
nan nan nan
nan nan nan
nan nan nan
nan nan nan
nan nan nan
nan nan nan
nan nan nan
nan nan nan
nan nan nan
nan nan nan
nan nan nan
nan nan nan
nan nan nan
nan nan nan
nan nan nan
nan nan nan
nan nan nan
nan nan nan
nan nan nan
nan nan nan
nan nan nan
nan nan nan
nan nan nan
nan nan nan
nan nan nan
nan nan nan
nan nan nan
nan nan nan
-0.34779179 0.13220225 0.81600004
-0.34688783 0.13252628 0.81800002
-0.34513146 0.13252628 0.81800002
-0.34337503 0.13252628 0.81800002
-0.34161866 0.13252628 0.81800002
-0.33986226 0.13252628 0.81800002
-0.33810586 0.13252628 0.81800002
-0.33634946 0.13252628 0.81800002
-0.33459309 0.13252628 0.81800002
-0.33283666 0.13252628 0.81800002
-0.33108029 0.13252628 0.81800002
-0.32932389 0.13252628 0.81800002
-0.32756749 0.13252628 0.81800002
-0.32660773 0.1328503 0.82000005
-0.32603547 0.13333634 0.82300001
-0.32505637 0.13366038 0.82500005
-0.32367679 0.13382238 0.82600003
-0.32229295 0.13398439 0.82700002
-0.31974211 0.13366038 0.82500005
-0.31642899 0.13301232 0.82100004
nan nan nan
nan nan nan
nan nan nan
nan nan nan
-0.30536672 0.13204025 0.81500006
nan nan nan
-0.30297798 0.13252628 0.81800002
-0.30195808 0.1328503 0.82000005
-0.30129567 0.13333634 0.82300001
-0.29952854 0.13333634 0.82300001
-0.29812321 0.13349836 0.82400006
-0.29671359 0.13366038 0.82500005
-0.29494214 0.13366038 0.82500005
-0.29317075 0.13366038 0.82500005
-0.29139933 0.13366038 0.82500005
-0.28927684 0.13349836 0.82400006
-0.28715864 0.13333634 0.82300001
-0.28539148 0.13333634 0.82300001
-0.28327975 0.13317433 0.82200003
-0.28151476 0.13317433 0.82200003
-0.27974978 0.13317433 0.82200003
-0.2776466 0.13301232 0.82100004
-0.27621982 0.13317433 0.82200003
-0.27478871 0.13333634 0.82300001
-0.27368507 0.13366038 0.82500005
-0.27290243 0.13414641 0.82800007
-0.27276179 0.13495648 0.83300006
-0.27227437 0.13560452 0.83700001
-0.27176976 0.13625257 0.84100002
-0.26932201 0.13592854 0.83900005
nan nan nan
nan nan nan
nan nan nan
nan nan nan
nan nan nan
nan nan nan
nan nan nan
nan nan nan
nan nan nan
nan nan nan
nan nan nan
nan nan nan
nan nan nan
nan nan nan
nan nan nan
nan nan nan
nan nan nan
nan nan nan
nan nan nan
nan nan nan
nan nan nan
nan nan nan
nan nan nan
nan nan nan
nan nan nan
nan nan nan
-0.22462735 0.13835873 0.85400003
-0.22305454 0.13852075 0.85500002
-0.22121869 0.13852075 0.85500002
-0.21938285 0.13852075 0.85500002
-0.21780145 0.13868277 0.85600007
-0.21571118 0.13852075 0.85500002
-0.21387534 0.13852075 0.85500002
-0.21203949 0.13852075 0.85500002
-0.21020365 0.13852075 0.85500002
-0.20836781 0.13852075 0.85500002
-0.20629042 0.13835873 0.85400003
-0.20445673 0.13835873 0.85400003
-0.20238578 0.13819672 0.85300004
-0.20078935 0.13835873 0.85400003
-0.19895566 0.13835873 0.85400003
-0.19689113 0.13819672 0.85300004
-0.19505958 0.13819672 0.85300004
-0.19345456 0.13835873 0.85400003
-0.19162089 0.13835873 0.85400003
-0.19000942 0.13852075 0.85500002
-0.18817358 0.13852075 0.85500002
-0.18655568 0.13868277 0.85600007
-0.18493348 0.13884477 0.85700005
-0.18309335 0.13884477 0.85700005
-0.18125321 0.13884477 0.85700005
-0.17941308 0.13884477 0.85700005
-0.17757295 0.13884477 0.85700005
-0.17552777 0.13868277 0.85600007
-0.17348686 0.13852075 0.85500002
-0.17124951 0.13819672 0.85300004
-0.16921934 0.13803472 0.85200006
-0.16738994 0.13803472 0.85200006
-0.16556054 0.13803472 0.85200006
-0.16373114 0.13803472 0.85200006
-0.16190176 0.13803472 0.85200006
-0.16007236 0.13803472 0.85200006
-0.15824296 0.13803472 0.85200006
-0.15641356 0.13803472 0.85200006
-0.15458415 0.13803472 0.85200006
-0.15257546 0.1378727 0.85100001
-0.15092535 0.13803472 0.85200006
-0.14892095 0.1378727 0.85100001
-0.14709371 0.1378727 0.85100001
-0.14526646 0.1378727 0.85100001
-0.14327066 0.13771068 0.85000002
-0.14144555 0.13771068 0.85000002
-0.13978471 0.1378727 0.85100001
-0.13795745 0.1378727 0.85100001
-0.1361302 0.1378727 0.85100001
-0.13446078 0.13803472 0.85200006
-0.1324757 0.1378727 0.85100001
-0.13064845 0.1378727 0.85100001
-0.12897259 0.13803472 0.85200006
-0.12729241 0.13819672 0.85300004
-0.12546086 0.13819672 0.85300004
-0.12377425 0.13835873 0.85400003
-0.12208334 0.13852075 0.85500002
-0.12038815 0.13868277 0.85600007
-0.11868865 0.13884477 0.85700005
-0.11671218 0.13868277 0.85600007
