# .PCD v0.7 - Point Cloud Data file format
VERSION 0.7
FIELDS x y z
SIZE 4 4 4
TYPE F F F
COUNT 1 1 1
WIDTH 1623
HEIGHT 1
VIEWPOINT 0 0 0 1 0 0 0
POINTS 1623
DATA ascii
0.26692146 0.11079887 0.76500005
0.26856405 0.11079887 0.76500005
0.27020666 0.11079887 0.76500005
0.27184924 0.11079887 0.76500005
0.27349183 0.11079887 0.76500005
0.27477476 0.11065403 0.76400006
0.2764152 0.11065403 0.76400006
0.27805567 0.11065403 0.76400006
0.27969611 0.11065403 0.76400006
0.28133658 0.11065403 0.76400006
0.28371778 0.1109437 0.76600003
0.28536251 0.1109437 0.76600003
0.28775662 0.11123337 0.76800001
0.29091296 0.11181271 0.77200001
0.29408652 0.11239205 0.77600002
0.29613382 0.11253688 0.77700001
0.29780221 0.11253688 0.77700001
0.29947054 0.11253688 0.77700001
0.30036381 0.11224722 0.77500004
0.30163816 0.11210239 0.77400005
0.30290821 0.11195755 0.77300006
0.30417395 0.11181271 0.77200001
0.30583158 0.11181271 0.77200001
0.30748922 0.11181271 0.77200001
0.30914682 0.11181271 0.77200001
0.31120709 0.11195755 0.77300006
0.31286684 0.11195755 0.77300006
0.31452659 0.11195755 0.77300006
0.31659541 0.11210239 0.77400005
0.31907967 0.11239205 0.77600002
0.32157257 0.11268172 0.77800006
0.32407403 0.1129714 0.78000003
0.32741937 0.11355074 0.78400004
0.32910272 0.11355074 0.78400004
0.33162996 0.1138404 0.78600001
0.33374172 0.11398524 0.78700006
0.33543155 0.11398524 0.78700006
0.3371214 0.11398524 0.78700006
0.33881122 0.11398524 0.78700006
0.34050107 0.11398524 0.78700006
0.34306049 0.11427491 0.78900003
0.34475464 0.11427491 0.78900003
nan nan nan
nan nan nan
nan nan nan
nan nan nan
nan nan nan
nan nan nan
nan nan nan
nan nan nan
0.36045802 0.11441974 0.79000002
0.36215428 0.11441974 0.79000002
0.36431113 0.11456458 0.79100001
0.36554685 0.11441974 0.79000002
0.36817285 0.11470942 0.79200006
0.37034044 0.11485425 0.79300004
0.37157398 0.11470942 0.79200006
0.37327456 0.11470942 0.79200006
0.37450165 0.11456458 0.79100001
0.3766757 0.11470942 0.79200006
0.37789848 0.11456458 0.79100001
0.37911701 0.11441974 0.79000002
0.38033125 0.11427491 0.78900003
0.38154119 0.11413008 0.78800005
0.38274685 0.11398524 0.78700006
0.38443667 0.11398524 0.78700006
0.38563585 0.1138404 0.78600001
0.38732353 0.1138404 0.78600001
0.3890112 0.1138404 0.78600001
0.39119601 0.11398524 0.78700006
0.39288583 0.11398524 0.78700006
0.39457566 0.11398524 0.78700006
0.39626551 0.11398524 0.78700006
nan nan nan
nan nan nan
nan nan nan
nan nan nan
nan nan nan
nan nan nan
nan nan nan
nan nan nan
nan nan nan
nan nan nan
nan nan nan
nan nan nan
nan nan nan
nan nan nan
nan nan nan
nan nan nan
nan nan nan
nan nan nan
nan nan nan
nan nan nan
nan nan nan
nan nan nan
nan nan nan
nan nan nan
nan nan nan
nan nan nan
nan nan nan
nan nan nan
nan nan nan
nan nan nan
nan nan nan
nan nan nan
nan nan nan
nan nan nan
nan nan nan
nan nan nan
nan nan nan
nan nan nan
nan nan nan
nan nan nan
nan nan nan
nan nan nan
nan nan nan
nan nan nan
nan nan nan
nan nan nan
nan nan nan
nan nan nan
nan nan nan
nan nan nan
nan nan nan
nan nan nan
nan nan nan
nan nan nan
-0.33663827 0.12096643 0.82300001
-0.33405736 0.12067247 0.82100004
-0.33310398 0.12096643 0.82300001
-0.33334988 0.12170135 0.82800007
-0.3323729 0.12199531 0.83000004
nan nan nan
nan nan nan
nan nan nan
nan nan nan
nan nan nan
nan nan nan
nan nan nan
nan nan nan
nan nan nan
-0.31493026 0.12214229 0.83100003
-0.31465328 0.12273023 0.83500004
-0.31360975 0.12302419 0.83700001
-0.31293017 0.12346514 0.84000003
-0.31149691 0.12361211 0.84100002
-0.30969116 0.12361211 0.84100002
-0.30788535 0.12361211 0.84100002
-0.30644354 0.12375911 0.84200007
-0.30427378 0.12361211 0.84100002
-0.30282769 0.12375911 0.84200007
-0.30066222 0.12361211 0.84100002
-0.29779041 0.12317117 0.83800006
-0.29528463 0.1228772 0.83600003
-0.29278746 0.12258324 0.83400005
-0.29029888 0.12228927 0.83200002
-0.28816566 0.12214229 0.83100003
-0.28638136 0.12214229 0.83100003
-0.28562447 0.12258324 0.83400005
-0.28451437 0.1228772 0.83600003
-0.28339568 0.12317117 0.83800006
-0.28092429 0.1228772 0.83600003
-0.27879536 0.12273023 0.83500004
-0.27700245 0.12273023 0.83500004
-0.27455041 0.12243626 0.83300006
-0.27243432 0.12228927 0.83200002
-0.27064788 0.12228927 0.83200002
-0.26918456 0.12243626 0.83300006
-0.26803797 0.12273023 0.83500004
-0.26752052 0.12331815 0.83900005
-0.26761928 0.12420005 0.84500003
-0.26643404 0.12449402 0.84700006
-0.26586503 0.12508194 0.85100001
-0.26558915 0.12581685 0.85600007
-0.26467547 0.12625779 0.85900003
-0.26313704 0.12640478 0.86000001
-0.26129043 0.12640478 0.86000001
-0.26004726 0.12669875 0.86200005
-0.25879544 0.1269927 0.86400002
-0.25694028 0.1269927 0.86400002
-0.25508511 0.1269927 0.86400002
-0.25322995 0.1269927 0.86400002
-0.25137478 0.1269927 0.86400002
-0.24980842 0.1271397 0.86500007
-0.24766445 0.1269927 0.86400002
-0.2458093 0.1269927 0.86400002
-0.24395412 0.1269927 0.86400002
-0.24209896 0.1269927 0.86400002
-0.24024379 0.1269927 0.86400002
-0.23838863 0.1269927 0.86400002
-0.23653345 0.1269927 0.86400002
-0.23494993 0.1271397 0.86500007
-0.23336208 0.12728667 0.86600006
-0.23150262 0.12728667 0.86600006
-0.22990835 0.12743366 0.86700004
-0.22804673 0.12743366 0.86700004
-0.22618514 0.12743366 0.86700004
-0.22458225 0.12758064 0.86800003
-0.22271851 0.12758064 0.86800003
-0.22085474 0.12758064 0.86800003
-0.21924329 0.12772761 0.86900002
-0.21737739 0.12772761 0.86900002
-0.21551149 0.12772761 0.86900002
-0.21389145 0.12787461 0.87000006
-0.2122671 0.12802158 0.87100005
-0.21039692 0.12802158 0.87100005
-0.20828731 0.12787461 0.87000006
-0.20641926 0.12787461 0.87000006
-0.20455121 0.12787461 0.87000006
-0.20245019 0.12772761 0.86900002
-0.20012264 0.12743366 0.86700004
-0.19780369 0.1271397 0.86500007
-0.19571984 0.1269927 0.86400002
-0.19386469 0.1269927 0.86400002
-0.19200952 0.1269927 0.86400002
-0.19037445 0.1271397 0.86500007
-0.18873507 0.12728667 0.86600006
-0.1870914 0.12743366 0.86700004
-0.18544343 0.12758064 0.86800003
-0.18379118 0.12772761 0.86900002
-0.18192527 0.12772761 0.86900002
-0.18005939 0.12772761 0.86900002
-0.17819348 0.12772761 0.86900002
-0.17632759 0.12772761 0.86900002
-0.17446168 0.12772761 0.86900002
-0.17259578 0.12772761 0.86900002
-0.17072988 0.12772761 0.86900002
-0.16905831 0.12787461 0.87000006
-0.16719025 0.12787461 0.87000006
-0.16532221 0.12787461 0.87000006
-0.16326629 0.12772761 0.86900002
-0.16140038 0.12772761 0.86900002
-0.15953448 0.12772761 0.86900002
-0.15766858 0.12772761 0.86900002
-0.15580267 0.12772761 0.86900002
-0.15393677 0.12772761 0.86900002
-0.15189588 0.12758064 0.86800003
-0.15003213 0.12758064 0.86800003
-0.14799768 0.12743366 0.86700004
-0.14596753 0.12728667 0.86600006
-0.14427447 0.12743366 0.86700004
-0.14241286 0.12743366 0.86700004
-0.14055125 0.12743366 0.86700004
-0.13868964 0.12743366 0.86700004
-0.13682804 0.12743366 0.86700004
-0.13512211 0.12758064 0.86800003
-0.13325836 0.12758064 0.86800003
-0.13124323 0.12743366 0.86700004
-0.12938161 0.12743366 0.86700004
-0.12752001 0.12743366 0.86700004
-0.12565841 0.12743366 0.86700004
-0.1237968 0.12743366 0.86700004
-0.12193519 0.12743366 0.86700004
-0.12007358 0.12743366 0.86700004
-0.11821198 0.12743366 0.86700004
-0.11635038 0.12743366 0.86700004
-0.11448877 0.12743366 0.86700004
-0.11262716 0.12743366 0.86700004
-0.11076555 0.12743366 0.86700004
-0.10902955 0.12758064 0.86800003
-0.10728927 0.12772761 0.86900002
-0.10542337 0.12772761 0.86900002
-0.10355747 0.12772761 0.86900002
-0.10180859 0.12787461 0.87000006
-0.099940546 0.12787461 0.87000006
-0.098185226 0.12802158 0.87100005
-0.096315026 0.12802158 0.87100005
-0.094336398 0.12787461 0.87000006
-0.092362069 0.12772761 0.86900002
-0.090496168 0.12772761 0.86900002
-0.088630266 0.12772761 0.86900002
-0.086764358 0.12772761 0.86900002
-0.084898464 0.12772761 0.86900002
-0.083032563 0.12772761 0.86900002
-0.081166662 0.12772761 0.86900002
-0.079300761 0.12772761 0.86900002
-0.077434868 0.12772761 0.86900002
-0.075568959 0.12772761 0.86900002
-0.073787875 0.12787461 0.87000006
-0.071837157 0.12772761 0.86900002
-0.070051789 0.12787461 0.87000006
-0.068262108 0.12802158 0.87100005
-0.066391915 0.12802158 0.87100005
-0.064595789 0.12816857 0.87200004
-0.062651522 0.12802158 0.87100005
-0.060851112 0.12816857 0.87200004
-0.058911134 0.12802158 0.87100005
-0.05697545 0.12787461 0.87000006
-0.055107407 0.12787461 0.87000006
-0.053239357 0.12787461 0.87000006
-0.051371306 0.12787461 0.87000006
-0.049446359 0.12772761 0.86900002
-0.047689963 0.12802158 0.87100005
-0.045819771 0.12802158 0.87100005
-0.044000033 0.12816857 0.87200004
-0.042127695 0.12816857 0.87200004
-0.040209185 0.12802158 0.87100005
-0.038338993 0.12802158 0.87100005
-0.036510665 0.12816857 0.87200004
-0.034598604 0.12802158 0.87100005
-0.032728408 0.12802158 0.87100005
-0.030858213 0.12802158 0.87100005
-0.029021299 0.12816857 0.87200004
-0.027180092 0.12831555 0.87300003
-0.025334589 0.12846252 0.87400001
-0.023457954 0.12846252 0.87400001
-0.021606011 0.12860952 0.87500006
-0.019727226 0.12860952 0.87500006
-0.017848443 0.12860952 0.87500006
-0.015951408 0.12846252 0.87400001
-0.014074773 0.12846252 0.87400001
-0.012198135 0.12846252 0.87400001
-0.010333309 0.12860952 0.87500006
-0.0084545258 0.12860952 0.87500006
-0.0065757423 0.12860952 0.87500006
-0.0047076945 0.12890348 0.87700003
-0.0028246166 0.12890348 0.87700003
-0.00094153889 0.12890348 0.87700003
0.00094153889 0.12890348 0.87700003
0.0028213959 0.12875649 0.87600005
0.0047023264 0.12875649 0.87600005
0.0065907724 0.12890348 0.87700003
0.0084738499 0.12890348 0.87700003
0.010368737 0.12905046 0.87800002
0.012253962 0.12905046 0.87800002
0.014171396 0.12934443 0.88000005
0.016079167 0.1294914 0.88100004
0.018011628 0.12978537 0.88300002
0.01990759 0.12978537 0.88300002
0.021828244 0.12993236 0.88400006
0.023753192 0.13007934 0.88500005
0.025653446 0.13007934 0.88500005
0.027553702 0.13007934 0.88500005
0.029453956 0.13007934 0.88500005
0.031389639 0.13022631 0.88600004
0.03329204 0.13022631 0.88600004
0.035194445 0.13022631 0.88600004
0.037054978 0.13007934 0.88500005
0.038955234 0.13007934 0.88500005
0.040855486 0.13007934 0.88500005
0.042755745 0.13007934 0.88500005
0.044706456 0.13022631 0.88600004
0.046608862 0.13022631 0.88600004
0.048620768 0.13052028 0.88800007
0.050527468 0.13052028 0.88800007
0.052493211 0.13066727 0.88900006
0.054402053 0.13066727 0.88900006
0.0563109 0.13066727 0.88900006
0.058285229 0.13081425 0.89000005
0.060196221 0.13081425 0.89000005
0.062107213 0.13081425 0.89000005
0.064090133 0.13096122 0.89100003
0.06600327 0.13096122 0.89100003
0.068068862 0.13125519 0.89300007
0.070064664 0.13140218 0.89400005
0.071903728 0.13125519 0.89300007
0.073903821 0.13140218 0.89400005
0.075908214 0.13154916 0.89500004
0.077742986 0.13140218 0.89400005
0.079751678 0.13154916 0.89500004
0.081673399 0.13154916 0.89500004
0.083688527 0.13169615 0.89600003
0.085612401 0.13169615 0.89600003
0.087633975 0.13184312 0.89700001
0.089559987 0.13184312 0.89700001
0.091689996 0.13213709 0.89900005
0.093620315 0.13213709 0.89900005
0.095656916 0.13228408 0.90000004
0.097589374 0.13228408 0.90000004
0.09963242 0.13243106 0.90100002
0.10156703 0.13243106 0.90100002
0.10361652 0.13257805 0.90200007
0.10555328 0.13257805 0.90200007
0.10749003 0.13257805 0.90200007
0.10942679 0.13257805 0.90200007
0.11124008 0.13243106 0.90100002
0.1133003 0.13257805 0.90200007
0.11536482 0.13272503 0.90300006
0.11730372 0.13272503 0.90300006
0.11924263 0.13272503 0.90300006
0.12144993 0.13301899 0.90500003
0.12339313 0.13301899 0.90500003
0.12561332 0.13331296 0.90700006
0.12756081 0.13331296 0.90700006
0.12965108 0.13345994 0.90800005
0.13160072 0.13345994 0.90800005
0.13355038 0.13345994 0.90800005
0.13550001 0.13345994 0.90800005
0.13744965 0.13345994 0.90800005
0.13955282 0.13360691 0.90900004
0.14166027 0.1337539 0.91000003
0.1436142 0.1337539 0.91000003
0.14556813 0.1337539 0.91000003
0.14752208 0.1337539 0.91000003
0.14947601 0.1337539 0.91000003
0.15142995 0.1337539 0.91000003
0.15338388 0.1337539 0.91000003
0.15533781 0.1337539 0.91000003
0.15729176 0.1337539 0.91000003
0.15924567 0.1337539 0.91000003
0.16102247 0.13360691 0.90900004
0.16297427 0.13360691 0.90900004
0.16510749 0.1337539 0.91000003
0.1674286 0.13404787 0.91200006
0.16975829 0.13434182 0.91400003
0.1717208 0.13434182 0.91400003
0.1740634 0.13463579 0.91600007
0.17679888 0.13522372 0.92000002
0.1816891 0.13742846 0.93500006
0.1860543 0.13919224 0.94700003
0.18908076 0.13992715 0.95200002
0.19172716 0.1403681 0.95500004
0.19418354 0.14066206 0.95700002
0.19644345 0.14080904 0.95800006
0.19850045 0.14080904 0.95800006
0.20013873 0.14051507 0.95600003
0.20197995 0.1403681 0.95500004
0.20403051 0.1403681 0.95500004
0.20586528 0.14022112 0.95400006
0.2079137 0.14022112 0.95400006
0.2099621 0.14022112 0.95400006
0.21201052 0.14022112 0.95400006
0.21405894 0.14022112 0.95400006
0.21588081 0.14007413 0.95300007
0.21769838 0.13992715 0.95200002
0.21905005 0.13948621 0.94900006
nan nan nan
nan nan nan
0.21685885 0.13434182 0.91400003
0.21738492 0.13345994 0.90800005
0.21812677 0.13272503 0.90300006
0.21884714 0.1319901 0.89800006
0.21979189 0.13140218 0.89400005
0.22096747 0.13096122 0.89100003
0.22162989 0.13022631 0.88600004
0.22151393 0.12905046 0.87800002
0.22187251 0.12816857 0.87200004
0.22169214 0.1269927 0.86400002
0.22070122 0.12537591 0.85300004
nan nan nan
0.22199705 0.12405307 0.84400004
0.22327894 0.12375911 0.84200007
0.22481951 0.12361211 0.84100002
0.22608635 0.12331815 0.83900005
0.2273446 0.12302419 0.83700001
0.22832049 0.12258324 0.83400005
0.22928351 0.12214229 0.83100003
0.2305117 0.12184833 0.82900006
0.2317313 0.12155436 0.82700002
0.23294231 0.1212604 0.82500005
0.23386024 0.12081945 0.82200003
0.23476528 0.12037851 0.81900007
0.23565741 0.11993756 0.81600004
0.23653668 0.11949661 0.81300002
0.23710997 0.11890868 0.80900002
0.23825659 0.11861472 0.80700004
0.23939459 0.11832076 0.80500007
0.24052401 0.11802679 0.80300003
0.24134314 0.11758584 0.80000001
0.24214941 0.1171449 0.79700005
0.24324878 0.11685093 0.79500002
0.24495576 0.11685093 0.79500002
0.24635252 0.11670395 0.79400003
0.24774496 0.11655696 0.79300004
0.24881856 0.11626299 0.79100001
0.25020027 0.11611602 0.79000002
0.25189656 0.11611602 0.79000002
0.25327182 0.11596904 0.78900003
0.25496593 0.11596904 0.78900003
0.25633478 0.11582205 0.78800005
0.25769931 0.11567508 0.78700006
0.25938916 0.11567508 0.78700006
0.26074722 0.11552808 0.78600001
0.2624349 0.11552808 0.78600001
0.26412258 0.11552808 0.78600001
0.26513392 0.11523413 0.78400004
0.26613668 0.11494017 0.78200006
0.26610336 0.11420525 0.77700001
0.26570401 0.11332335 0.77100003
0.26597238 0.11273543 0.76700002
0.26692146 0.11244147 0.76500005
0.26856405 0.11244147 0.76500005
0.26985344 0.11229448 0.76400006
0.27113849 0.1121475 0.76300001
0.27277678 0.1121475 0.76300001
0.27405545 0.11200052 0.76200002
0.2756916 0.11200052 0.76200002
0.27659988 0.11170655 0.76000005
0.27823171 0.11170655 0.76000005
0.2798636 0.11170655 0.76000005
0.28149545 0.11170655 0.76000005
0.28312728 0.11170655 0.76000005
0.28550851 0.11200052 0.76200002
0.28827515 0.11244147 0.76500005
0.2906757 0.11273543 0.76700002
0.29232258 0.11273543 0.76700002
0.29396948 0.11273543 0.76700002
0.29600179 0.11288241 0.76800001
0.29765081 0.11288241 0.76800001
0.29929987 0.11288241 0.76800001
0.30134076 0.1130294 0.76900005
0.30259794 0.11288241 0.76800001
0.30464312 0.1130294 0.76900005
0.30629432 0.1130294 0.76900005
0.30794549 0.1130294 0.76900005
0.30959669 0.1130294 0.76900005
0.3116526 0.11317638 0.77000004
0.31330591 0.11317638 0.77000004
0.31455022 0.1130294 0.76900005
0.31661257 0.11317638 0.77000004
0.31785259 0.1130294 0.76900005
0.3203347 0.11332335 0.77100003
0.32199019 0.11332335 0.77100003
0.32406545 0.11347034 0.77200001
0.32867652 0.11449922 0.77900004
0.33246952 0.11523413 0.78400004
0.33457911 0.11538111 0.78500003
0.33669302 0.11552808 0.78600001
0.3379502 0.11538111 0.78500003
nan nan nan
nan nan nan
nan nan nan
nan nan nan
nan nan nan
nan nan nan
nan nan nan
nan nan nan
nan nan nan
nan nan nan
nan nan nan
0.35908923 0.11567508 0.78700006
0.36077905 0.11567508 0.78700006
0.36246887 0.11567508 0.78700006
0.36369595 0.11552808 0.78600001
0.36631337 0.11582205 0.78800005
0.36847237 0.11596904 0.78900003
0.37016651 0.11596904 0.78900003
0.37186062 0.11596904 0.78900003
0.37355474 0.11596904 0.78900003
0.37524888 0.11596904 0.78900003
0.37694299 0.11596904 0.78900003
0.37815723 0.11582205 0.78800005
0.3793672 0.11567508 0.78700006
0.38105702 0.11567508 0.78700006
0.3822605 0.11552808 0.78600001
0.38394818 0.11552808 0.78600001
0.38514525 0.11538111 0.78500003
0.38683078 0.11538111 0.78500003
0.38851631 0.11538111 0.78500003
0.39020184 0.11538111 0.78500003
0.39138815 0.11523413 0.78400004
0.39307153 0.11523413 0.78400004
0.39425144 0.11508714 0.78300005
0.39542705 0.11494017 0.78200006
nan nan nan
nan nan nan
nan nan nan
nan nan nan
nan nan nan
nan nan nan
nan nan nan
nan nan nan
nan nan nan
nan nan nan
nan nan nan
nan nan nan
nan nan nan
nan nan nan
nan nan nan
nan nan nan
nan nan nan
nan nan nan
nan nan nan
nan nan nan
nan nan nan
nan nan nan
nan nan nan
nan nan nan
nan nan nan
nan nan nan
nan nan nan
nan nan nan
nan nan nan
nan nan nan
nan nan nan
nan nan nan
nan nan nan
nan nan nan
nan nan nan
nan nan nan
nan nan nan
nan nan nan
nan nan nan
nan nan nan
nan nan nan
nan nan nan
nan nan nan
nan nan nan
nan nan nan
nan nan nan
nan nan nan
nan nan nan
nan nan nan
nan nan nan
nan nan nan
nan nan nan
nan nan nan
nan nan nan
nan nan nan
nan nan nan
nan nan nan
nan nan nan
nan nan nan
nan nan nan
nan nan nan
nan nan nan
nan nan nan
nan nan nan
nan nan nan
nan nan nan
nan nan nan
-0.31341437 0.12333009 0.82700002
-0.31276911 0.12377747 0.83000004
-0.3128604 0.12452312 0.83500004
-0.31255764 0.12511964 0.83900005
-0.31112653 0.12526877 0.84000003
-0.30895469 0.12511964 0.83900005
-0.30715317 0.12511964 0.83900005
-0.30498776 0.12497051 0.83800006
-0.30210301 0.12452312 0.83500004
-0.29995048 0.12437399 0.83400005
-0.29672968 0.12377747 0.83000004
-0.29423681 0.12347922 0.82800007
-0.29281217 0.12362835 0.82900006
-0.29103214 0.12362835 0.82900006
-0.28925213 0.12362835 0.82900006
-0.28712535 0.12347922 0.82800007
-0.28569213 0.12362835 0.82900006
-0.28459704 0.1239266 0.83100003
-0.28315306 0.12407573 0.83200002
-0.28136659 0.12407573 0.83200002
-0.27924412 0.1239266 0.83100003
-0.27745983 0.1239266 0.83100003
-0.27567551 0.1239266 0.83100003
-0.27356163 0.12377747 0.83000004
-0.27145201 0.12362835 0.82900006
-0.27032259 0.1239266 0.83100003
-0.26886141 0.12407573 0.83200002
-0.26835898 0.12467225 0.83600003
-0.26815823 0.1254179 0.84100002
-0.26793599 0.12616354 0.84600002
-0.26706317 0.12661093 0.84900004
-0.26648986 0.12720746 0.85300004
-0.26589939 0.12780397 0.85700005
-0.26467547 0.12810223 0.85900003
-0.26283106 0.12810223 0.85900003
-0.26068279 0.1279531 0.85800004
-0.25914222 0.12810223 0.85900003
-0.25819638 0.12854962 0.86200005
-0.25634551 0.12854962 0.86200005
-0.25449464 0.12854962 0.86200005
-0.25264376 0.12854962 0.86200005
-0.25079289 0.12854962 0.86200005
-0.24894202 0.12854962 0.86200005
-0.24680452 0.12840049 0.86100006
-0.24467129 0.12825136 0.86000001
-0.2428247 0.12825136 0.86000001
-0.24069794 0.12810223 0.85900003
-0.23913154 0.12825136 0.86000001
-0.23728497 0.12825136 0.86000001
-0.23543839 0.12825136 0.86000001
-0.23413508 0.12854962 0.86200005
-0.23255366 0.12869875 0.86300004
-0.23096797 0.12884787 0.86400002
-0.22911282 0.12884787 0.86400002
-0.22752067 0.12899701 0.86500007
-0.22592425 0.12914614 0.86600006
-0.22432351 0.12929526 0.86700004
-0.22220534 0.12914614 0.86600006
-0.22060031 0.12929526 0.86700004
-0.2187387 0.12929526 0.86700004
-0.21687712 0.12929526 0.86700004
-0.21526349 0.12944439 0.86800003
-0.21364558 0.12959352 0.86900002
-0.21177968 0.12959352 0.86900002
-0.20991379 0.12959352 0.86900002
-0.20804788 0.12959352 0.86900002
-0.20570746 0.12929526 0.86700004
-0.20361075 0.12914614 0.86600006
-0.20151831 0.12899701 0.86500007
-0.19919935 0.12869875 0.86300004
-0.19711766 0.12854962 0.86200005
-0.19504027 0.12840049 0.86100006
-0.19319156 0.12840049 0.86100006
-0.19156507 0.12854962 0.86200005
-0.19015436 0.12884787 0.86400002
-0.18851714 0.12899701 0.86500007
-0.1870914 0.12929526 0.86700004
-0.18522979 0.12929526 0.86700004
-0.18336819 0.12929526 0.86700004
-0.18150657 0.12929526 0.86700004
-0.17964499 0.12929526 0.86700004
-0.17778337 0.12929526 0.86700004
-0.17571886 0.12914614 0.86600006
-0.17406017 0.12929526 0.86700004
-0.17219855 0.12929526 0.86700004
-0.17033695 0.12929526 0.86700004
-0.16847534 0.12929526 0.86700004
-0.16680591 0.12944439 0.86800003
-0.16494216 0.12944439 0.86800003
-0.16307841 0.12944439 0.86800003
-0.16121465 0.12944439 0.86800003
-0.1593509 0.12944439 0.86800003
-0.15748714 0.12944439 0.86800003
-0.15562339 0.12944439 0.86800003
-0.1535825 0.12929526 0.86700004
-0.15172088 0.12929526 0.86700004
-0.14968644 0.12914614 0.86600006
-0.14748557 0.12884787 0.86400002
-0.1456304 0.12884787 0.86400002
-0.14377524 0.12884787 0.86400002
-0.14208435 0.12899701 0.86500007
-0.14006491 0.12884787 0.86400002
-0.13836972 0.12899701 0.86500007
-0.1365124 0.12899701 0.86500007
-0.13481078 0.12914614 0.86600006
-0.13295132 0.12914614 0.86600006
-0.1307891 0.12884787 0.86400002
-0.12893392 0.12884787 0.86400002
-0.12722585 0.12899701 0.86500007
-0.12522359 0.12884787 0.86400002
-0.12336843 0.12884787 0.86400002
-0.12151326 0.12884787 0.86400002
-0.1196581 0.12884787 0.86400002
-0.11780295 0.12884787 0.86400002
-0.11594778 0.12884787 0.86400002
-0.11409261 0.12884787 0.86400002
-0.11223745 0.12884787 0.86400002
-0.11038228 0.12884787 0.86400002
-0.10865273 0.12899701 0.86500007
-0.10679542 0.12899701 0.86500007
-0.10505942 0.12914614 0.86600006
-0.10319997 0.12914614 0.86600006
-0.10122348 0.12899701 0.86500007
-0.099366181 0.12899701 0.86500007
-0.097734317 0.12929526 0.86700004
-0.095872708 0.12929526 0.86700004
-0.094011098 0.12929526 0.86700004
-0.092149496 0.12929526 0.86700004
-0.090287894 0.12929526 0.86700004
-0.088426284 0.12929526 0.86700004
-0.086564675 0.12929526 0.86700004
-0.084605381 0.12914614 0.86600006
-0.082841471 0.12929526 0.86700004
-0.080979861 0.12929526 0.86700004
-0.079209507 0.12944439 0.86800003
-0.077345759 0.12944439 0.86800003
-0.075482003 0.12944439 0.86800003
-0.073618248 0.12944439 0.86800003
-0.071837157 0.12959352 0.86900002
-0.069971263 0.12959352 0.86900002
-0.068105362 0.12959352 0.86900002
-0.066239461 0.12959352 0.86900002
-0.064447641 0.12974265 0.87000006
-0.062507659 0.12959352 0.86900002
-0.060641762 0.12959352 0.86900002
-0.058843497 0.12974265 0.87000006
-0.05697545 0.12974265 0.87000006
-0.055044062 0.12959352 0.86900002
-0.053178158 0.12959352 0.86900002
-0.051371306 0.12974265 0.87000006
-0.049446359 0.12959352 0.86900002
-0.047635213 0.12974265 0.87000006
-0.045767166 0.12974265 0.87000006
-0.043949574 0.12989178 0.87100005
-0.042079382 0.12989178 0.87100005
-0.040209185 0.12989178 0.87100005
-0.038294975 0.12974265 0.87000006
-0.036468796 0.12989178 0.87100005
-0.034558881 0.12974265 0.87000006
-0.032690831 0.12974265 0.87000006
-0.030822786 0.12974265 0.87000006
-0.028988017 0.12989178 0.87100005
-0.027148958 0.13004091 0.87200004
-0.025305603 0.13019004 0.87300003
-0.023457954 0.13033916 0.87400001
-0.021606011 0.13048831 0.87500006
-0.019727226 0.13048831 0.87500006
-0.017828045 0.13033916 0.87400001
-0.015951408 0.13033916 0.87400001
-0.014074773 0.13033916 0.87400001
-0.012212093 0.13048831 0.87500006
-0.010333309 0.13048831 0.87500006
-0.0084545258 0.13048831 0.87500006
-0.0065832571 0.13063744 0.87600005
-0.0047076945 0.13078655 0.87700003
-0.0028278374 0.13093568 0.87800002
-0.00094261247 0.13093568 0.87800002
0.00094261247 0.13093568 0.87800002
0.0028278374 0.13093568 0.87800002
0.0047130622 0.13093568 0.87800002
0.0065907724 0.13078655 0.87700003
0.0084835123 0.13093568 0.87800002
0.010368737 0.13093568 0.87800002
0.012267919 0.13108483 0.87900007
0.014171396 0.13123395 0.88000005
0.016079167 0.13138308 0.88100004
0.018011628 0.13168134 0.88300002
0.01990759 0.13168134 0.88300002
0.021828244 0.13183047 0.88400006
0.023753192 0.1319796 0.88500005
0.025653446 0.1319796 0.88500005
0.027584836 0.13212873 0.88600004
0.029487237 0.13212873 0.88600004
0.031389639 0.13212873 0.88600004
0.03329204 0.13212873 0.88600004
0.035194445 0.13212873 0.88600004
0.037096847 0.13212873 0.88600004
0.038999252 0.13212873 0.88600004
0.04090165 0.13212873 0.88600004
0.042804055 0.13212873 0.88600004
0.044756915 0.13227785 0.88700002
0.046714075 0.13242699 0.88800007
0.048675522 0.13257612 0.88900006
0.050584368 0.13257612 0.88900006
0.052552257 0.13272524 0.89000005
0.054463249 0.13272524 0.89000005
0.056374241 0.13272524 0.89000005
0.058350716 0.13287437 0.89100003
0.060263857 0.13287437 0.89100003
0.062176995 0.13287437 0.89100003
0.064162068 0.1330235 0.89200002
0.066151425 0.13317263 0.89300007
0.068145089 0.13332176 0.89400005
0.070143037 0.13347089 0.89500004
0.071984246 0.13332176 0.89400005
0.073986486 0.13347089 0.89500004
0.075993031 0.13362002 0.89600003
0.07782995 0.13347089 0.89500004
0.079840779 0.13362002 0.89600003
0.081764653 0.13362002 0.89600003
0.083688527 0.13362002 0.89600003
0.085803509 0.13391829 0.89800006
0.087829374 0.13406742 0.89900005
0.089759685 0.13406742 0.89900005
0.091893978 0.13436566 0.90100002
0.093932733 0.13451481 0.90200007
0.095869489 0.13451481 0.90200007
0.097914673 0.13466392 0.90300006
0.099853583 0.13466392 0.90300006
0.10179249 0.13466392 0.90300006
0.10384627 0.13481306 0.90400004
0.10578731 0.13481306 0.90400004
0.10784753 0.13496219 0.90500003
0.10979073 0.13496219 0.90500003
0.11161047 0.13481306 0.90400004
0.11355152 0.13481306 0.90400004
0.11549257 0.13481306 0.90400004
0.11756353 0.13496219 0.90500003
0.11950673 0.13496219 0.90500003
0.12158412 0.13511132 0.90600002
0.12352948 0.13511132 0.90600002
0.12561332 0.13526045 0.90700006
0.12770145 0.13540958 0.90800005
0.12993665 0.13570783 0.91000003
0.13189059 0.13570783 0.91000003
0.13384452 0.13570783 0.91000003
0.13564923 0.13555871 0.90900004
0.1377524 0.13570783 0.91000003
0.13970634 0.13570783 0.91000003
0.14181596 0.13585697 0.91100007
0.1436142 0.13570783 0.91000003
0.14572811 0.13585697 0.91100007
0.1478463 0.1360061 0.91200006
0.14980453 0.1360061 0.91200006
0.15176277 0.1360061 0.91200006
0.15372099 0.1360061 0.91200006
0.15550853 0.13585697 0.91100007
0.15746461 0.13585697 0.91100007
0.15942068 0.13585697 0.91100007
0.16137676 0.13585697 0.91100007
0.16333285 0.13585697 0.91100007
0.16528893 0.13585697 0.91100007
0.16761218 0.13615522 0.91300005
0.16994402 0.13645348 0.91500002
0.17228445 0.13675174 0.91700006
0.17444344 0.13690087 0.91800004
0.1781441 0.13824303 0.92700005
0.18324365 0.1406291 0.94300002
0.18644725 0.14152388 0.94900006
0.18967661 0.14241865 0.95500004
0.19212869 0.14271691 0.95700002
0.19438645 0.14286605 0.95800006
0.19603334 0.14256778 0.95600003
0.19808605 0.14256778 0.95600003
0.19992939 0.14241865 0.95500004
0.20155697 0.14212041 0.95300007
0.20338957 0.14197128 0.95200002
0.2054337 0.14197128 0.95200002
0.20725988 0.14182214 0.95100003
0.20952193 0.14197128 0.95200002
0.21134381 0.14182214 0.95100003
0.21338579 0.14182214 0.95100003
0.21542774 0.14182214 0.95100003
0.21724105 0.14167301 0.95000005
0.2185884 0.14122562 0.94700003
nan nan nan
nan nan nan
0.21733338 0.13660261 0.91600007
0.21786372 0.13570783 0.91000003
0.21812677 0.13466392 0.90300006
0.21909083 0.13406742 0.89900005
0.21979189 0.13332176 0.89400005
0.22096747 0.13287437 0.89100003
0.22162989 0.13212873 0.88600004
0.22100934 0.13063744 0.87600005
0.22110918 0.12959352 0.86900002
0.2209224 0.12840049 0.86100006
0.22044249 0.12705833 0.85200006
nan nan nan
0.221471 0.12556703 0.84200007
0.22274858 0.12526877 0.84000003
0.22401756 0.12497051 0.83800006
0.22500846 0.12452312 0.83500004
0.22625814 0.12422486 0.83300006
0.22749919 0.1239266 0.83100003
0.22873169 0.12362835 0.82900006
0.22995557 0.12333009 0.82700002
0.23145109 0.12318096 0.82600003
0.23265995 0.1228827 0.82400006
0.23357573 0.12243531 0.82100004
0.23419197 0.12183879 0.81700003
0.23507981 0.1213914 0.81400001
0.23595481 0.12094402 0.81100005
0.23681688 0.12049662 0.80800003
0.23766612 0.12004924 0.80500007
0.23909719 0.11990011 0.80400002
0.23992495 0.11945272 0.80100006
0.24104147 0.11915446 0.79900002
0.24184559 0.11870708 0.79600006
0.2429428 0.11840881 0.79400003
0.24433954 0.11825968 0.79300004
0.24604227 0.11825968 0.79300004
0.24743256 0.11811056 0.79200006
0.248504 0.11781229 0.79000002
0.24988356 0.11766317 0.78900003
0.25157771 0.11766317 0.78900003
0.25262982 0.11736491 0.78700006
0.25431964 0.11736491 0.78700006
0.25568417 0.11721577 0.78600001
0.25737184 0.11721577 0.78600001
0.25872996 0.11706664 0.78500003
0.26041549 0.11706664 0.78500003
0.26176715 0.11691752 0.78400004
0.26311451 0.11676839 0.78300005
0.26445755 0.11661927 0.78200006
0.26511568 0.11617187 0.77900004
0.26473346 0.1152771 0.77300006
0.26535937 0.1148297 0.77000004
0.26597238 0.11438231 0.76700002
0.26692146 0.11408406 0.76500005
0.26856405 0.11408406 0.76500005
0.26985344 0.11393493 0.76400006
0.27113849 0.1137858 0.76300001
0.27313432 0.11393493 0.76400006
0.27405545 0.11363667 0.76200002
0.274968 0.11333841 0.76000005
0.27587196 0.11304015 0.75800002
0.27676734 0.1127419 0.75600004
0.27802238 0.11259276 0.75500005
0.27927309 0.11244363 0.75400001
0.28089207 0.11244363 0.75400001
0.28251106 0.11244363 0.75400001
0.28450686 0.11259276 0.75500005
0.28878084 0.11363667 0.76200002
0.2907981 0.1137858 0.76300001
0.29281968 0.11393493 0.76400006
0.29484555 0.11408406 0.76500005
0.29648814 0.11408406 0.76500005
0.29852045 0.11423319 0.76600003
0.30016518 0.11423319 0.76600003
0.30180991 0.11423319 0.76600003
0.3038508 0.11438231 0.76700002
0.30549771 0.11438231 0.76700002
0.30674413 0.11423319 0.76600003
0.30879149 0.11438231 0.76700002
0.31043836 0.11438231 0.76700002
0.31208524 0.11438231 0.76700002
0.31373215 0.11438231 0.76700002
0.31496784 0.11423319 0.76600003
0.31619927 0.11408406 0.76500005
0.31825733 0.11423319 0.76600003
0.31948444 0.11408406 0.76500005
0.32112703 0.11408406 0.76500005
0.32361346 0.11438231 0.76700002
0.32610852 0.11468058 0.76900005
0.32861209 0.11497883 0.77100003
0.33198103 0.11557535 0.77500004
0.3340756 0.11572448 0.77600002
0.33530918 0.11557535 0.77500004
nan nan nan
nan nan nan
nan nan nan
nan nan nan
nan nan nan
nan nan nan
nan nan nan
nan nan nan
nan nan nan
nan nan nan
nan nan nan
nan nan nan
nan nan nan
nan nan nan
0.36445391 0.11691752 0.78400004
0.36707133 0.11721577 0.78600001
0.36922818 0.11736491 0.78700006
0.37091804 0.11736491 0.78700006
0.37213439 0.11721577 0.78600001
0.37382209 0.11721577 0.78600001
0.37550974 0.11721577 0.78600001
0.37671754 0.11706664 0.78500003
0.37792104 0.11691752 0.78400004
0.37960443 0.11691752 0.78400004
0.3808015 0.11676839 0.78300005
0.38248274 0.11676839 0.78300005
0.38416401 0.11676839 0.78300005
0.38584521 0.11676839 0.78300005
0.38752645 0.11676839 0.78300005
0.38920772 0.11676839 0.78300005
0.39038974 0.11661927 0.78200006
0.39206883 0.11661927 0.78200006
0.39324439 0.11647013 0.78100002
0.39441571 0.116321 0.78000003
0.39558271 0.11617187 0.77900004
0.39725533 0.11617187 0.77900004
0.39944008 0.116321 0.78000003
nan nan nan
nan nan nan
nan nan nan
nan nan nan
nan nan nan
nan nan nan
nan nan nan
nan nan nan
nan nan nan
nan nan nan
nan nan nan
nan nan nan
nan nan nan
nan nan nan
nan nan nan
nan nan nan
nan nan nan
nan nan nan
nan nan nan
nan nan nan
nan nan nan
nan nan nan
nan nan nan
nan nan nan
nan nan nan
nan nan nan
nan nan nan
nan nan nan
nan nan nan
nan nan nan
nan nan nan
nan nan nan
nan nan nan
nan nan nan
nan nan nan
nan nan nan
nan nan nan
nan nan nan
nan nan nan
nan nan nan
nan nan nan
nan nan nan
nan nan nan
nan nan nan
nan nan nan
nan nan nan
nan nan nan
nan nan nan
nan nan nan
nan nan nan
nan nan nan
nan nan nan
nan nan nan
nan nan nan
nan nan nan
nan nan nan
nan nan nan
nan nan nan
nan nan nan
nan nan nan
nan nan nan
nan nan nan
-0.31773236 0.12540837 0.82900006
-0.31480893 0.12495453 0.82600003
-0.31227744 0.12465198 0.82400006
-0.31088498 0.12480325 0.82500005
-0.31023762 0.12525709 0.82800007
-0.30957735 0.1257109 0.83100003
-0.30853382 0.12601347 0.83300006
-0.30674523 0.12601347 0.83300006
-0.30459049 0.12586218 0.83200002
-0.30244011 0.1257109 0.83100003
-0.30029401 0.12555964 0.83000004
-0.29815221 0.12540837 0.82900006
-0.29494214 0.12480325 0.82500005
-0.29246002 0.1245007 0.82300001
-0.29104611 0.12465198 0.82400006
-0.28962788 0.12480325 0.82500005
-0.28750756 0.12465198 0.82400006
-0.28573826 0.12465198 0.82400006
-0.28431362 0.12480325 0.82500005
-0.28254217 0.12480325 0.82500005
-0.28111109 0.12495453 0.82600003
-0.27899933 0.12480325 0.82500005
-0.27756396 0.12495453 0.82600003
-0.27612427 0.1251058 0.82700002
-0.27468029 0.12525709 0.82800007
-0.27290243 0.12525709 0.82800007
-0.27112457 0.12525709 0.82800007
-0.2699973 0.12555964 0.83000004
-0.26918456 0.12601347 0.83300006
-0.26932201 0.12692113 0.83900005
-0.26879597 0.12752624 0.84300005
-0.2682527 0.12813134 0.84700006
-0.26737773 0.12858516 0.85000002
-0.26648986 0.129039 0.85300004
-0.26558915 0.12949283 0.85600007
-0.26405925 0.12964411 0.85700005
-0.26221913 0.12964411 0.85700005
-0.26007515 0.12949283 0.85600007
-0.25853884 0.12964411 0.85700005
-0.25729778 0.12994666 0.85900003
-0.25575072 0.13009793 0.86000001
-0.25390416 0.13009793 0.86000001
-0.25176448 0.12994666 0.85900003
-0.24992007 0.12994666 0.85900003
-0.24807562 0.12994666 0.85900003
-0.24623121 0.12994666 0.85900003
-0.2441023 0.12979539 0.85800004
-0.24197765 0.12964411 0.85700005
-0.24013752 0.12964411 0.85700005
-0.23829737 0.12964411 0.85700005
-0.23645726 0.12964411 0.85700005
-0.2346171 0.12964411 0.85700005
-0.23332021 0.12994666 0.85900003
-0.23174523 0.13009793 0.86000001
-0.23043333 0.13040049 0.86200005
-0.22858247 0.13040049 0.86200005
-0.2269946 0.13055177 0.86300004
-0.22540249 0.13070305 0.86400002
-0.22354731 0.13070305 0.86400002
-0.22169214 0.13070305 0.86400002
-0.21958253 0.13055177 0.86300004
-0.21798182 0.13070305 0.86400002
-0.21612667 0.13070305 0.86400002
-0.2145195 0.13085432 0.86500007
-0.21290803 0.1310056 0.86600006
-0.21129228 0.13115688 0.86700004
-0.20943068 0.13115688 0.86700004
-0.20756908 0.13115688 0.86700004
-0.2054702 0.1310056 0.86600006
-0.2031405 0.13070305 0.86400002
-0.20128533 0.13070305 0.86400002
-0.19896853 0.13040049 0.86200005
-0.19666031 0.13009793 0.86000001
-0.1945872 0.12994666 0.85900003
-0.19274278 0.12994666 0.85900003
-0.19089836 0.12994666 0.85900003
-0.18927401 0.13009793 0.86000001
-0.18786332 0.13040049 0.86200005
-0.18622823 0.13055177 0.86300004
-0.18458885 0.13070305 0.86400002
-0.18273368 0.13070305 0.86400002
-0.18087852 0.13070305 0.86400002
-0.17902337 0.13070305 0.86400002
-0.17716821 0.13070305 0.86400002
-0.17490722 0.13040049 0.86200005
-0.17305635 0.13040049 0.86200005
-0.17120549 0.13040049 0.86200005
-0.16955107 0.13055177 0.86300004
-0.16789238 0.13070305 0.86400002
-0.16603722 0.13070305 0.86400002
-0.16437209 0.13085432 0.86500007
-0.16270265 0.1310056 0.86600006
-0.16084319 0.1310056 0.86600006
-0.15880015 0.13085432 0.86500007
-0.15694284 0.13085432 0.86500007
-0.15508552 0.13085432 0.86500007
-0.15322821 0.13085432 0.86500007
-0.1511959 0.13070305 0.86400002
-0.14934073 0.13070305 0.86400002
-0.14731488 0.13055177 0.86300004
-0.14529331 0.13040049 0.86200005
-0.14360884 0.13055177 0.86300004
-0.14159156 0.13040049 0.86200005
-0.13974069 0.13040049 0.86200005
-0.13788982 0.13040049 0.86200005
-0.13603894 0.13040049 0.86200005
-0.13418809 0.13040049 0.86200005
-0.13233721 0.13040049 0.86200005
-0.13018359 0.13009793 0.86000001
-0.12848625 0.13024922 0.86100006
-0.12678461 0.13040049 0.86200005
-0.12493373 0.13040049 0.86200005
-0.12308286 0.13040049 0.86200005
-0.12123199 0.13040049 0.86200005
-0.11938111 0.13040049 0.86200005
-0.11753026 0.13040049 0.86200005
-0.11567938 0.13040049 0.86200005
-0.11369646 0.13024922 0.86100006
-0.11184774 0.13024922 0.86100006
-0.11012677 0.13040049 0.86200005
-0.1082759 0.13040049 0.86200005
-0.10642503 0.13040049 0.86200005
-0.10457416 0.13040049 0.86200005
-0.10272329 0.13040049 0.86200005
-0.10087242 0.13040049 0.86200005
-0.099021554 0.13040049 0.86200005
-0.097283408 0.13055177 0.86300004
-0.095540963 0.13070305 0.86400002
-0.093794234 0.13085432 0.86500007
-0.091936931 0.13085432 0.86500007
-0.089975476 0.13070305 0.86400002
-0.088222302 0.13085432 0.86500007
-0.086265139 0.13070305 0.86400002
-0.084409982 0.13070305 0.86400002
-0.082554817 0.13070305 0.86400002
-0.080699652 0.13070305 0.86400002
-0.078935742 0.13085432 0.86500007
-0.077078439 0.13085432 0.86500007
-0.075308084 0.1310056 0.86600006
-0.073533438 0.13115688 0.86700004
-0.071671829 0.13115688 0.86700004
-0.069810227 0.13115688 0.86700004
-0.06802699 0.13130815 0.86800003
-0.066239461 0.13145943 0.86900002
-0.06437356 0.13145943 0.86900002
-0.062507659 0.13145943 0.86900002
-0.060641762 0.13145943 0.86900002
-0.058775857 0.13145943 0.86900002
-0.056909956 0.13145943 0.86900002
-0.055044062 0.13145943 0.86900002
-0.053178158 0.13145943 0.86900002
-0.051312257 0.13145943 0.86900002
-0.049389459 0.13130815 0.86800003
-0.047580458 0.13145943 0.86900002
-0.045714557 0.13145943 0.86900002
-0.043899119 0.13161071 0.87000006
-0.042031072 0.13161071 0.87000006
-0.040116854 0.13145943 0.86900002
-0.038250957 0.13145943 0.86900002
-0.036426928 0.13161071 0.87000006
-0.034519155 0.13145943 0.86900002
-0.032653254 0.13145943 0.86900002
-0.030787356 0.13145943 0.86900002
-0.028921453 0.13145943 0.86900002
-0.027117824 0.13176198 0.87100005
-0.025276616 0.13191326 0.87200004
-0.023431113 0.13206454 0.87300003
-0.021581316 0.13221581 0.87400001
-0.019704681 0.13221581 0.87400001
-0.017848443 0.13236709 0.87500006
-0.01596966 0.13236709 0.87500006
-0.014090877 0.13236709 0.87500006
-0.012212093 0.13236709 0.87500006
-0.010333309 0.13236709 0.87500006
-0.0084545258 0.13236709 0.87500006
-0.0065832571 0.13251837 0.87600005
-0.0047076945 0.13266964 0.87700003
-0.0028278374 0.13282092 0.87800002
-0.00094261247 0.13282092 0.87800002
0.00094261247 0.13282092 0.87800002
0.0028278374 0.13282092 0.87800002
0.0047130622 0.13282092 0.87800002
0.0065982873 0.13282092 0.87800002
0.0084835123 0.13282092 0.87800002
0.010380547 0.1329722 0.87900007
0.012281876 0.13312347 0.88000005
0.014171396 0.13312347 0.88000005
0.016115667 0.1335773 0.88300002
0.018011628 0.1335773 0.88300002
0.019930135 0.13372858 0.88400006
0.021852937 0.13387986 0.88500005
0.023753192 0.13387986 0.88500005
0.025682433 0.13403113 0.88600004
0.027584836 0.13403113 0.88600004
0.029520517 0.13418241 0.88700002
0.031460498 0.13433369 0.88800007
0.033367194 0.13433369 0.88800007
0.035273891 0.13433369 0.88800007
0.037180588 0.13433369 0.88800007
0.039087284 0.13433369 0.88800007
0.041040145 0.13448496 0.88900006
0.042948991 0.13448496 0.88900006
0.044857834 0.13448496 0.88900006
0.04676668 0.13448496 0.88900006
0.048730273 0.13463624 0.89000005
0.050641265 0.13463624 0.89000005
0.052611303 0.13478751 0.89100003
0.054524444 0.13478751 0.89100003
0.056437582 0.13478751 0.89100003
0.058416203 0.13493879 0.89200002
0.06033149 0.13493879 0.89200002
0.062246777 0.13493879 0.89200002
0.064233996 0.13509007 0.89300007
0.066225506 0.13524134 0.89400005
0.068221308 0.13539262 0.89500004
0.070221409 0.1355439 0.89600003
0.072145283 0.1355439 0.89600003
0.074069157 0.1355439 0.89600003
0.075993031 0.1355439 0.89600003
0.077916905 0.1355439 0.89600003
0.079840779 0.1355439 0.89600003
0.081764653 0.1355439 0.89600003
0.083688527 0.1355439 0.89600003
0.085803509 0.13584645 0.89800006
0.087829374 0.13599773 0.89900005
0.089859523 0.136149 0.90000004
0.091995977 0.13645156 0.90200007
0.09403687 0.13660283 0.90300006
0.096082062 0.13675411 0.90400004
0.098131537 0.13690539 0.90500003
0.10007474 0.13690539 0.90500003
0.10213067 0.13705666 0.90600002
0.10407601 0.13705666 0.90600002
0.10602135 0.13705666 0.90600002
0.1079667 0.13705666 0.90600002
0.10991205 0.13705666 0.90600002
0.1118574 0.13705666 0.90600002
0.11380274 0.13705666 0.90600002
0.11574809 0.13705666 0.90600002
0.11769343 0.13705666 0.90600002
0.11963878 0.13705666 0.90600002
0.12158412 0.13705666 0.90600002
0.12366583 0.13720794 0.90700006
0.12575181 0.13735922 0.90800005
0.12784208 0.13751049 0.90900004
0.12993665 0.13766177 0.91000003
0.13189059 0.13766177 0.91000003
0.13384452 0.13766177 0.91000003
0.13579847 0.13766177 0.91000003
0.1377524 0.13766177 0.91000003
0.13985987 0.13781305 0.91100007
0.14181596 0.13781305 0.91100007
0.14377202 0.13781305 0.91100007
0.14604804 0.1381156 0.91300005
0.14817052 0.13826688 0.91400003
0.15013304 0.13826688 0.91400003
0.15209557 0.13826688 0.91400003
0.1540581 0.13826688 0.91400003
0.15602063 0.13826688 0.91400003
0.15798315 0.13826688 0.91400003
0.15994565 0.13826688 0.91400003
0.16190818 0.13826688 0.91400003
0.16369142 0.1381156 0.91300005
0.16583323 0.13826688 0.91400003
0.16779576 0.13826688 0.91400003
0.17012975 0.13856943 0.91600007
0.17247233 0.13887198 0.91800004
0.17482348 0.13917454 0.92000002
0.17968148 0.14144368 0.93500006
0.18382661 0.14310773 0.94600004
0.18664372 0.14371283 0.95000005
0.18987522 0.14462049 0.95600003
0.19212869 0.14477177 0.95700002
0.19438645 0.14492305 0.95800006
0.1962384 0.14477177 0.95700002
0.19787885 0.14446922 0.95500004
0.19972004 0.14431794 0.95400006
0.20113397 0.14386411 0.95100003
0.20296229 0.14371283 0.95000005
0.20478633 0.14356156 0.94900006
0.206824 0.14356156 0.94900006
0.20886168 0.14356156 0.94900006
0.21089935 0.14356156 0.94900006
0.21271266 0.14341028 0.94800007
0.21474817 0.14341028 0.94800007
0.2167837 0.14341028 0.94800007
0.21812676 0.14295645 0.94500005
0.21875803 0.14204879 0.93900007
0.2188933 0.14083858 0.93100005
0.21899422 0.13962837 0.92300004
0.2193002 0.13856943 0.91600007
0.21957611 0.13751049 0.90900004
0.21933454 0.136149 0.90000004
0.21954605 0.13509007 0.89300007
0.22047149 0.13448496 0.88900006
0.22137976 0.13387986 0.88500005
0.22075707 0.13236709 0.87500006
0.22085474 0.13130815 0.86800003
0.22040921 0.12994666 0.85900003
0.21992502 0.12858516 0.85000002
nan nan nan
0.22094493 0.12707241 0.84000003
0.22195303 0.12661856 0.83700001
0.22321558 0.12631603 0.83500004
0.22446953 0.12601347 0.83300006
0.22571489 0.1257109 0.83100003
0.22722542 0.12555964 0.83000004
0.22817986 0.1251058 0.82700002
0.22967751 0.12495453 0.82600003
0.23089069 0.12465198 0.82400006
0.23209524 0.12434942 0.82200003
0.23300675 0.1238956 0.81900007
0.23333201 0.1231392 0.81400001
0.23421343 0.12268538 0.81100005
0.23537292 0.12238282 0.80900002
0.23623072 0.121929 0.80600005
0.23737086 0.12162644 0.80400002
0.23850243 0.12132389 0.80200005
0.23962541 0.12102133 0.80000001
0.24043812 0.12056751 0.79700005
0.2409341 0.1199624 0.79300004
0.24233086 0.11981113 0.79200006
0.24403141 0.11981113 0.79200006
0.24573199 0.11981113 0.79200006
0.24712013 0.11965984 0.79100001
0.24818945 0.1193573 0.78900003
0.24956685 0.11920602 0.78800005
0.25094 0.11905474 0.78700006
0.25262982 0.11905474 0.78700006
0.25399646 0.11890346 0.78600001
0.25535887 0.11875218 0.78500003
0.2570444 0.11875218 0.78500003
0.25840038 0.11860091 0.78400004
0.26008373 0.11860091 0.78400004
0.26143327 0.11844964 0.78300005
0.26277846 0.11829836 0.78200006
0.26378119 0.1179958 0.78000003
0.26409468 0.11739069 0.77600002
0.26439098 0.11678559 0.77200001
0.26535937 0.11648304 0.77000004
0.26631916 0.11618048 0.76800001
0.26761928 0.1160292 0.76700002
0.26926616 0.1160292 0.76700002
0.27020666 0.11572666 0.76500005
0.27149388 0.11557538 0.76400006
0.27313432 0.11557538 0.76400006
0.27405545 0.11527282 0.76200002
0.2746062 0.114819 0.75900006
0.2751441 0.11436516 0.75600004
0.27603513 0.11406261 0.75400001
0.2772859 0.11391133 0.75300002
0.27853233 0.11376005 0.75200003
0.27977446 0.11360878 0.75100005
0.281387 0.11360878 0.75100005
0.28299955 0.11360878 0.75100005
0.28537002 0.11391133 0.75300002
0.28774911 0.11421389 0.75500005
0.29052004 0.11466771 0.75800002
0.29291844 0.11497027 0.76000005
0.29532543 0.11527282 0.76200002
0.2973513 0.1154241 0.76300001
0.29898956 0.1154241 0.76300001
0.30062789 0.1154241 0.76300001
0.30266234 0.11557538 0.76400006
0.30470112 0.11572666 0.76500005
0.30594325 0.11557538 0.76400006
0.30798629 0.11572666 0.76500005
0.30962887 0.11572666 0.76500005
0.31127146 0.11572666 0.76500005
0.31250504 0.11557538 0.76400006
0.31414548 0.11557538 0.76400006
0.31537259 0.1154241 0.76300001
0.31701088 0.1154241 0.76300001
0.31781393 0.11512154 0.76100004
0.31902817 0.11497027 0.76000005
0.32150388 0.11527282 0.76200002
0.32398817 0.11557538 0.76400006
0.32562861 0.11557538 0.76400006
0.32769743 0.11572666 0.76500005
0.32977051 0.11587793 0.76600003
nan nan nan
0.33219039 0.11557538 0.76400006
nan nan nan
nan nan nan
nan nan nan
nan nan nan
nan nan nan
nan nan nan
nan nan nan
nan nan nan
nan nan nan
nan nan nan
nan nan nan
0.34220374 0.11239856 0.74300003
0.34472457 0.11270113 0.74500006
0.34725392 0.11300367 0.74700004
nan nan nan
0.36453658 0.11754197 0.77700001
0.36856151 0.11829836 0.78200006
0.3702406 0.11829836 0.78200006
0.37191969 0.11829836 0.78200006
0.37407652 0.11844964 0.78300005
0.37575775 0.11844964 0.78300005
0.37695697 0.11829836 0.78200006
0.37863606 0.11829836 0.78200006
0.37982881 0.11814708 0.78100002
0.38101727 0.1179958 0.78000003
0.3831827 0.11814708 0.78100002
0.38436687 0.1179958 0.78000003
0.38604167 0.1179958 0.78000003
0.38771647 0.1179958 0.78000003
0.38939127 0.1179958 0.78000003
0.39056471 0.11784453 0.77900004
0.39223737 0.11784453 0.77900004
0.39289871 0.11754197 0.77700001
0.39456707 0.11754197 0.77700001
0.39623541 0.11754197 0.77700001
0.39790377 0.11754197 0.77700001
0.40214342 0.11829836 0.78200006
nan nan nan
nan nan nan
nan nan nan
nan nan nan
nan nan nan
nan nan nan
nan nan nan
nan nan nan
nan nan nan
nan nan nan
nan nan nan
nan nan nan
nan nan nan
nan nan nan
nan nan nan
nan nan nan
nan nan nan
nan nan nan
nan nan nan
nan nan nan
nan nan nan
nan nan nan
nan nan nan
nan nan nan
nan nan nan
nan nan nan
nan nan nan
nan nan nan
nan nan nan
nan nan nan
nan nan nan
nan nan nan
nan nan nan
nan nan nan
nan nan nan
nan nan nan
nan nan nan
nan nan nan
nan nan nan
nan nan nan
nan nan nan
nan nan nan
nan nan nan
nan nan nan
nan nan nan
nan nan nan
nan nan nan
nan nan nan
nan nan nan
nan nan nan
nan nan nan
nan nan nan
nan nan nan
nan nan nan
nan nan nan
nan nan nan
nan nan nan
nan nan nan
nan nan nan
nan nan nan
-0.3187415 0.12688152 0.82700002
-0.3154327 0.12626782 0.82300001
-0.31328446 0.1261144 0.82200003
-0.31114051 0.12596099 0.82100004
-0.30937764 0.12596099 0.82100004
-0.30836418 0.12626782 0.82300001
-0.30734211 0.12657468 0.82500005
-0.30557072 0.12657468 0.82500005
-0.3037993 0.12657468 0.82500005
-0.30202785 0.12657468 0.82500005
-0.30025643 0.12657468 0.82500005
-0.29812321 0.12642126 0.82400006
-0.29563463 0.1261144 0.82200003
-0.29351214 0.12596099 0.82100004
-0.29139394 0.12580757 0.82000005
-0.28963327 0.12580757 0.82000005
-0.2885747 0.1261144 0.82200003
-0.28646082 0.12596099 0.82100004
-0.28469795 0.12596099 0.82100004
-0.28327975 0.1261144 0.82200003
-0.28151476 0.1261144 0.82200003
-0.27974978 0.1261144 0.82200003
-0.27798477 0.1261144 0.82200003
-0.27655584 0.12626782 0.82300001
-0.27545652 0.12657468 0.82500005
-0.2740168 0.1267281 0.82600003
-0.27257282 0.12688152 0.82700002
-0.27112457 0.12703496 0.82800007
-0.2699973 0.12734179 0.83000004
-0.26950771 0.1279555 0.83400005
-0.26996401 0.12902945 0.84100002
-0.26943365 0.12964316 0.84500003
-0.26888612 0.13025685 0.84900004
-0.2676923 0.13056369 0.85100001
-0.26648986 0.13087055 0.85300004
-0.26527885 0.1311774 0.85500002
-0.26375112 0.13133082 0.85600007
-0.26191315 0.13133082 0.85600007
-0.25977132 0.1311774 0.85500002
-0.25793549 0.1311774 0.85500002
-0.25669873 0.13148424 0.85700005
-0.25545335 0.13179109 0.85900003
-0.25360894 0.13179109 0.85900003
-0.25117832 0.13148424 0.85700005
-0.24933819 0.13148424 0.85700005
