# .PCD v0.7 - Point Cloud Data file format
VERSION 0.7
FIELDS x y z
SIZE 4 4 4
TYPE F F F
COUNT 1 1 1
WIDTH 1587
HEIGHT 1
VIEWPOINT 0 0 0 1 0 0 0
POINTS 1587
DATA ascii
-0.33336598 0.12504044 0.81500006
-0.33161601 0.12504044 0.81500006
-0.32946131 0.12488701 0.81400001
-0.32771352 0.12488701 0.81400001
-0.32636616 0.12504044 0.81500006
-0.32421789 0.12488701 0.81400001
-0.32207394 0.12473359 0.81300002
-0.31993428 0.12458017 0.81200004
-0.31858259 0.12473359 0.81300002
-0.31683695 0.12473359 0.81300002
-0.31470376 0.12458017 0.81200004
-0.3125748 0.12442674 0.81100005
-0.31083345 0.12442674 0.81100005
nan nan nan
nan nan nan
nan nan nan
nan nan nan
nan nan nan
nan nan nan
nan nan nan
nan nan nan
nan nan nan
nan nan nan
nan nan nan
nan nan nan
nan nan nan
nan nan nan
nan nan nan
nan nan nan
nan nan nan
nan nan nan
nan nan nan
nan nan nan
nan nan nan
nan nan nan
nan nan nan
nan nan nan
nan nan nan
nan nan nan
nan nan nan
nan nan nan
-0.26611197 0.12718837 0.82900006
-0.26465082 0.12734179 0.83000004
nan nan nan
-0.2642321 0.12887603 0.84000003
-0.2630533 0.12918289 0.84200007
-0.26155564 0.12933631 0.84300005
-0.25974557 0.12933631 0.84300005
-0.25762954 0.12918289 0.84200007
-0.25582159 0.12918289 0.84200007
-0.25431535 0.12933631 0.84300005
-0.2525053 0.12933631 0.84300005
-0.25128996 0.12964316 0.84500003
-0.24977084 0.12979658 0.84600002
-0.24795431 0.12979658 0.84600002
-0.2461378 0.12979658 0.84600002
-0.24432127 0.12979658 0.84600002
-0.24221812 0.12964316 0.84500003
-0.24040377 0.12964316 0.84500003
-0.23858939 0.12964316 0.84500003
-0.23705523 0.12979658 0.84600002
-0.23551677 0.12995 0.84700006
-0.23397404 0.13010342 0.84800005
-0.23242697 0.13025685 0.84900004
-0.23060402 0.13025685 0.84900004
-0.22878106 0.13025685 0.84900004
-0.22669078 0.13010342 0.84800005
-0.22487 0.13010342 0.84800005
-0.22278614 0.12995 0.84700006
-0.2207066 0.12979658 0.84600002
-0.21889007 0.12979658 0.84600002
-0.21707356 0.12979658 0.84600002
-0.21551149 0.12995 0.84700006
-0.21394512 0.13010342 0.84800005
-0.21237446 0.13025685 0.84900004
-0.2105515 0.13025685 0.84900004
-0.20872854 0.13025685 0.84900004
-0.20714928 0.13041027 0.85000002
-0.20532419 0.13041027 0.85000002
-0.20349909 0.13041027 0.85000002
-0.20167398 0.13041027 0.85000002
-0.19984888 0.13041027 0.85000002
-0.19825673 0.13056369 0.85100001
-0.19642949 0.13056369 0.85100001
-0.19460224 0.13056369 0.85100001
-0.19277498 0.13056369 0.85100001
-0.19094774 0.13056369 0.85100001
-0.18889825 0.13041027 0.85000002
-0.18707316 0.13041027 0.85000002
-0.18481217 0.13010342 0.84800005
-0.18320715 0.13025685 0.84900004
-0.18138419 0.13025685 0.84900004
-0.17977273 0.13041027 0.85000002
-0.17815697 0.13056369 0.85100001
-0.17632973 0.13056369 0.85100001
-0.17470755 0.13071713 0.85200006
-0.17287815 0.13071713 0.85200006
-0.17104875 0.13071713 0.85200006
-0.16921934 0.13071713 0.85200006
-0.16738994 0.13071713 0.85200006
-0.16556054 0.13071713 0.85200006
-0.16373114 0.13071713 0.85200006
-0.16171172 0.13056369 0.85100001
-0.15988447 0.13056369 0.85100001
-0.15805721 0.13056369 0.85100001
-0.15641356 0.13071713 0.85200006
-0.15458415 0.13071713 0.85200006
-0.15275475 0.13071713 0.85200006
-0.1511025 0.13087055 0.85300004
-0.14927095 0.13087055 0.85300004
-0.14743942 0.13087055 0.85300004
-0.14560787 0.13087055 0.85300004
-0.14377633 0.13087055 0.85300004
-0.14194478 0.13087055 0.85300004
-0.14011323 0.13087055 0.85300004
-0.13828169 0.13087055 0.85300004
-0.13645013 0.13087055 0.85300004
-0.13446078 0.13071713 0.85200006
-0.13278705 0.13087055 0.85300004
-0.13110903 0.13102397 0.85400003
-0.1294267 0.1311774 0.85500002
-0.1277401 0.13133082 0.85600007
-0.12604919 0.13148424 0.85700005
-0.12420905 0.13148424 0.85700005
-0.12251171 0.13163766 0.85800004
-0.12066942 0.13163766 0.85800004
-0.11882714 0.13163766 0.85800004
-0.11698487 0.13163766 0.85800004
-0.11500839 0.13148424 0.85700005
-0.11316825 0.13148424 0.85700005
-0.11132812 0.13148424 0.85700005
-0.10936023 0.13133082 0.85600007
-0.10752224 0.13133082 0.85600007
-0.10568426 0.13133082 0.85600007
-0.10384627 0.13133082 0.85600007
-0.10200828 0.13133082 0.85600007
-0.10017029 0.13133082 0.85600007
-0.098332308 0.13133082 0.85600007
-0.096494317 0.13133082 0.85600007
-0.094766907 0.13148424 0.85700005
-0.092926778 0.13148424 0.85700005
-0.091086648 0.13148424 0.85700005
-0.089246511 0.13148424 0.85700005
-0.087610357 0.13179109 0.85900003
-0.085765921 0.13179109 0.85900003
-0.084019192 0.13194451 0.86000001
-0.082268171 0.13209794 0.86100006
-0.080512851 0.13225137 0.86200005
-0.078661978 0.13225137 0.86200005
-0.076811112 0.13225137 0.86200005
-0.075047202 0.13240479 0.86300004
-0.073194183 0.13240479 0.86300004
-0.071341164 0.13240479 0.86300004
-0.069488145 0.13240479 0.86300004
-0.067635134 0.13240479 0.86300004
-0.065858334 0.13255821 0.86400002
-0.064077251 0.13271163 0.86500007
-0.062219944 0.13271163 0.86500007
-0.060432412 0.13286506 0.86600006
-0.058640588 0.13301848 0.86700004
-0.056778979 0.13301848 0.86700004
-0.05491738 0.13301848 0.86700004
-0.053055771 0.13301848 0.86700004
-0.051194165 0.13301848 0.86700004
-0.049218759 0.13271163 0.86500007
-0.047361448 0.13271163 0.86500007
-0.045556743 0.13286506 0.86600006
-0.043646824 0.13271163 0.86500007
-0.041789513 0.13271163 0.86500007
-0.039932199 0.13271163 0.86500007
-0.038074892 0.13271163 0.86500007
-0.036259446 0.13286506 0.86600006
-0.034439713 0.13301848 0.86700004
-0.032578103 0.13301848 0.86700004
-0.030716499 0.13301848 0.86700004
-0.028888173 0.1331719 0.86800003
-0.027024422 0.1331719 0.86800003
-0.025131682 0.13301848 0.86700004
-0.023296915 0.1331719 0.86800003
-0.021433162 0.1331719 0.86800003
-0.019546865 0.13301848 0.86700004
-0.017705655 0.1331719 0.86800003
-0.015823651 0.13301848 0.86700004
-0.013962045 0.13301848 0.86700004
-0.012114395 0.1331719 0.86800003
-0.010250642 0.1331719 0.86800003
-0.0083868895 0.1331719 0.86800003
-0.0065306509 0.13332532 0.86900002
-0.0046647508 0.13332532 0.86900002
-0.0028020714 0.13347876 0.87000006
-0.00093617092 0.13378561 0.87200004
0.00093617092 0.13378561 0.87200004
0.0028085129 0.13378561 0.87200004
0.0046808547 0.13378561 0.87200004
0.0065531963 0.13378561 0.87200004
0.0084255384 0.13378561 0.87200004
0.010297881 0.13378561 0.87200004
0.012170223 0.13378561 0.87200004
0.014042565 0.13378561 0.87200004
0.015914908 0.13378561 0.87200004
0.017787248 0.13378561 0.87200004
0.01965959 0.13378561 0.87200004
0.021531932 0.13378561 0.87200004
0.023457954 0.13409245 0.87400001
0.025334589 0.13409245 0.87400001
0.027211225 0.13409245 0.87400001
0.02908786 0.13409245 0.87400001
0.030964497 0.13409245 0.87400001
0.032878708 0.13424587 0.87500006
0.034717768 0.13409245 0.87400001
0.036594406 0.13409245 0.87400001
0.038471043 0.13409245 0.87400001
0.040301513 0.13393903 0.87300003
0.042224314 0.13409245 0.87400001
0.04415141 0.13424587 0.87500006
0.046030197 0.13424587 0.87500006
0.047908977 0.13424587 0.87500006
0.049844664 0.13439929 0.87600005
0.051784638 0.13455272 0.87700003
0.053728912 0.13470614 0.87800002
0.055677481 0.13485958 0.87900007
0.057564851 0.13485958 0.87900007
0.059384584 0.13470614 0.87800002
0.061269812 0.13470614 0.87800002
0.06315504 0.13470614 0.87800002
0.064892106 0.13439929 0.87600005
0.066696815 0.13424587 0.87500006
0.068575598 0.13424587 0.87500006
0.070454381 0.13424587 0.87500006
0.072333165 0.13424587 0.87500006
0.074211948 0.13424587 0.87500006
0.076177694 0.13439929 0.87600005
0.078147732 0.13455272 0.87700003
0.080122054 0.13470614 0.87800002
0.082007281 0.13470614 0.87800002
0.083892509 0.13470614 0.87800002
0.085777737 0.13470614 0.87800002
0.087662958 0.13470614 0.87800002
0.089548185 0.13470614 0.87800002
0.091433413 0.13470614 0.87800002
0.093318634 0.13470614 0.87800002
0.095203854 0.13470614 0.87800002
0.097089082 0.13470614 0.87800002
0.099087045 0.13485958 0.87900007
0.10108929 0.135013 0.88000005
0.10309582 0.13516642 0.88100004
0.10510666 0.13531983 0.88200003
0.10700047 0.13531983 0.88200003
0.10889429 0.13531983 0.88200003
0.1107881 0.13531983 0.88200003
0.11280967 0.13547325 0.88300002
0.11470563 0.13547325 0.88300002
0.11646954 0.13531983 0.88200003
0.11849756 0.13547325 0.88300002
0.12039351 0.13547325 0.88300002
0.12242797 0.13562669 0.88400006
0.12432608 0.13562669 0.88400006
0.12622419 0.13562669 0.88400006
0.12826723 0.13578011 0.88500005
0.13002041 0.13562669 0.88400006
0.13191852 0.13562669 0.88400006
0.13366525 0.13547325 0.88300002
0.1355612 0.13547325 0.88300002
0.13761285 0.13562669 0.88400006
0.13966876 0.13578011 0.88500005
0.14140905 0.13562669 0.88400006
0.14346927 0.13578011 0.88500005
0.14553379 0.13593353 0.88600004
0.14743619 0.13593353 0.88600004
0.14950715 0.13608696 0.88700002
0.1514117 0.13608696 0.88700002
0.1534891 0.13624039 0.88800007
0.15539579 0.13624039 0.88800007
0.15730248 0.13624039 0.88800007
0.15920919 0.13624039 0.88800007
0.16093443 0.13608696 0.88700002
0.162839 0.13608696 0.88700002
0.16474354 0.13608696 0.88700002
0.16664809 0.13608696 0.88700002
0.16836262 0.13593353 0.88600004
0.17026502 0.13593353 0.88600004
0.17216742 0.13593353 0.88600004
0.17406982 0.13593353 0.88600004
0.17597222 0.13593353 0.88600004
0.17787462 0.13593353 0.88600004
0.17977703 0.13593353 0.88600004
0.18167944 0.13593353 0.88600004
0.18378904 0.13608696 0.88700002
0.18590294 0.13624039 0.88800007
0.18780963 0.13624039 0.88800007
0.18950269 0.13608696 0.88700002
0.19162303 0.13624039 0.88800007
0.19352973 0.13624039 0.88800007
0.19543643 0.13624039 0.88800007
0.19756536 0.1363938 0.88900006
0.1994742 0.1363938 0.88900006
0.20138304 0.1363938 0.88900006
0.20352055 0.13654722 0.89000005
0.20566237 0.13670065 0.89100003
0.2075755 0.13670065 0.89100003
0.20995888 0.1370075 0.89300007
0.21187632 0.1370075 0.89300007
0.21379375 0.1370075 0.89300007
0.21522807 0.13670065 0.89100003
0.2171412 0.13670065 0.89100003
0.21856263 0.1363938 0.88900006
0.22047149 0.1363938 0.88900006
0.22238034 0.1363938 0.88900006
0.22454146 0.13654722 0.89000005
0.22645244 0.13654722 0.89000005
0.22887662 0.13685407 0.89200002
0.23105064 0.1370075 0.89300007
0.23296809 0.1370075 0.89300007
0.23488551 0.1370075 0.89300007
0.23680295 0.1370075 0.89300007
0.23872037 0.1370075 0.89300007
0.24063779 0.1370075 0.89300007
0.24255525 0.1370075 0.89300007
0.24447267 0.1370075 0.89300007
0.24639012 0.1370075 0.89300007
0.24830754 0.1370075 0.89300007
0.25078538 0.13731435 0.89500004
0.25298947 0.13746777 0.89600003
0.25491336 0.13746777 0.89600003
0.25712386 0.13762119 0.89700001
0.25904986 0.13762119 0.89700001
0.26126686 0.13777462 0.89800006
0.26348811 0.13792804 0.89900005
0.26512319 0.13777462 0.89800006
0.26734874 0.13792804 0.89900005
0.26927906 0.13792804 0.89900005
0.27120936 0.13792804 0.89900005
0.27313969 0.13792804 0.89900005
0.27507001 0.13792804 0.89900005
0.27730843 0.13808146 0.90000004
0.28017172 0.13854174 0.90300006
0.28460991 0.13976914 0.91100007
0.2890825 0.14099652 0.91900003
0.29453957 0.14268419 0.93000007
0.29876846 0.14375815 0.93700004
0.30142236 0.14406501 0.93900007
0.30408484 0.14437185 0.94100004
0.30545476 0.14406501 0.93900007
0.30714351 0.14391157 0.93800002
0.308828 0.14375815 0.93700004
0.30984464 0.14329788 0.93400002
0.3108485 0.14283761 0.93100005
0.31150338 0.14222391 0.92700005
0.31214106 0.14161022 0.92300004
0.31344229 0.14130338 0.92100006
0.31473485 0.14099652 0.91900003
0.31636351 0.14084309 0.91800004
0.31798786 0.14068967 0.91700006
0.31891006 0.1402294 0.91400003
0.32052153 0.14007598 0.91300005
0.32142228 0.1396157 0.91000003
0.32337621 0.1396157 0.91000003
0.32461512 0.13930885 0.90800005
0.32548583 0.13884859 0.90500003
0.3267054 0.13854174 0.90300006
0.32718852 0.13792804 0.89900005
0.32802054 0.13746777 0.89600003
0.32920796 0.13716093 0.89400005
0.33001634 0.13670065 0.89100003
0.3300668 0.13593353 0.88600004
0.3300958 0.13516642 0.88100004
0.32633501 0.13286506 0.86600006
nan nan nan
0.32090694 0.12918289 0.84200007
0.32079852 0.12841576 0.83700001
0.32105404 0.12780207 0.83300006
0.32129237 0.12718837 0.82900006
0.32229295 0.12688152 0.82700002
0.32328495 0.12657468 0.82500005
0.32308635 0.12580757 0.82000005
0.32247007 0.12488701 0.81400001
0.3218281 0.12396647 0.80800003
0.32156077 0.12319935 0.80300003
0.32247978 0.12289251 0.80100006
0.32217595 0.12212539 0.79600006
0.32225752 0.1215117 0.79200006
0.32273099 0.12105142 0.78900003
0.32360274 0.12074458 0.78700006
0.32405257 0.1202843 0.78400004
0.32532048 0.12013088 0.78300005
0.32574883 0.11967061 0.78000003
0.3265841 0.11936376 0.77800006
0.32741076 0.11905691 0.77600002
0.32865289 0.11890349 0.77500004
0.32946452 0.11859664 0.77300006
0.33026758 0.11828979 0.77100003
0.33106205 0.11798295 0.76900005
0.33228055 0.11782952 0.76800001
0.33349478 0.11767609 0.76700002
0.33470473 0.11752267 0.76600003
0.33591038 0.11736925 0.76500005
0.33711171 0.11721583 0.76400006
0.33830878 0.1170624 0.76300001
0.33950153 0.11690897 0.76200002
0.34024233 0.11660213 0.76000005
0.34142435 0.11644871 0.75900006
0.34215009 0.11614186 0.75700003
0.34332138 0.11598843 0.75600004
0.34357581 0.11552816 0.75300002
0.3442758 0.11522131 0.75100005
0.34542775 0.11506789 0.75000006
0.34657541 0.11491446 0.74900001
0.34725392 0.11460762 0.74700004
0.34839088 0.11445419 0.74600005
0.34905434 0.11414734 0.74400002
0.34970924 0.1138405 0.74200004
0.34988207 0.11338022 0.73900002
0.35051766 0.11307338 0.73700005
0.35162237 0.11291996 0.73600006
0.35224289 0.1126131 0.73400003
0.35381895 0.1126131 0.73400003
0.35491079 0.11245968 0.73300004
0.35599834 0.11230626 0.73200005
0.35805854 0.11245968 0.73300004
0.35914183 0.11230626 0.73200005
0.36071354 0.11230626 0.73200005
0.36179033 0.11215283 0.73100001
0.36335993 0.11215283 0.73100001
0.36393109 0.11184599 0.72900003
0.36399224 0.11138571 0.72600001
0.36404058 0.11092545 0.72300005
0.36458167 0.1106186 0.72100002
0.36460641 0.11015833 0.71800005
0.36614805 0.11015833 0.71800005
0.36717761 0.1100049 0.71700001
0.36820292 0.10985148 0.71600002
nan nan nan
nan nan nan
nan nan nan
nan nan nan
nan nan nan
nan nan nan
nan nan nan
nan nan nan
nan nan nan
nan nan nan
nan nan nan
nan nan nan
nan nan nan
nan nan nan
nan nan nan
nan nan nan
nan nan nan
nan nan nan
nan nan nan
nan nan nan
nan nan nan
nan nan nan
nan nan nan
nan nan nan
nan nan nan
nan nan nan
nan nan nan
nan nan nan
nan nan nan
nan nan nan
nan nan nan
nan nan nan
nan nan nan
nan nan nan
nan nan nan
nan nan nan
nan nan nan
nan nan nan
nan nan nan
nan nan nan
nan nan nan
nan nan nan
nan nan nan
-0.34344375 0.12663481 0.81400001
-0.34169593 0.12663481 0.81400001
-0.33953053 0.12647924 0.81300002
-0.33778486 0.12647924 0.81300002
-0.33603922 0.12647924 0.81300002
-0.33388236 0.12632367 0.81200004
-0.33172983 0.1261681 0.81100005
-0.32998845 0.1261681 0.81100005
-0.3282471 0.1261681 0.81100005
-0.32650575 0.1261681 0.81100005
-0.32516479 0.12632367 0.81200004
-0.3234213 0.12632367 0.81200004
-0.32128164 0.1261681 0.81100005
-0.31914628 0.12601253 0.81000006
-0.31740704 0.12601253 0.81000006
-0.31605753 0.1261681 0.81100005
-0.31392863 0.12601253 0.81000006
-0.31180397 0.12585695 0.80900002
-0.30968365 0.12570138 0.80800003
nan nan nan
nan nan nan
nan nan nan
nan nan nan
nan nan nan
nan nan nan
nan nan nan
nan nan nan
nan nan nan
nan nan nan
nan nan nan
nan nan nan
nan nan nan
nan nan nan
nan nan nan
nan nan nan
nan nan nan
nan nan nan
nan nan nan
nan nan nan
nan nan nan
nan nan nan
nan nan nan
nan nan nan
nan nan nan
nan nan nan
nan nan nan
nan nan nan
-0.26546994 0.12865724 0.82700002
-0.26496968 0.12927952 0.83100003
nan nan nan
-0.26486126 0.1309908 0.84200007
-0.26367813 0.13130194 0.84400004
-0.26186591 0.13130194 0.84400004
-0.26005369 0.13130194 0.84400004
-0.25793549 0.13114637 0.84300005
-0.25612542 0.13114637 0.84300005
-0.25431535 0.13114637 0.84300005
-0.25280482 0.13130194 0.84400004
-0.25158733 0.13161308 0.84600002
-0.24977084 0.13161308 0.84600002
-0.24795431 0.13161308 0.84600002
-0.2461378 0.13161308 0.84600002
-0.24432127 0.13161308 0.84600002
-0.24250478 0.13161308 0.84600002
-0.24068826 0.13161308 0.84600002
-0.23887174 0.13161308 0.84600002
-0.23705523 0.13161308 0.84600002
-0.23579483 0.13192423 0.84800005
-0.23397404 0.13192423 0.84800005
-0.23270074 0.13223536 0.85000002
-0.23087564 0.13223536 0.85000002
-0.22878106 0.1320798 0.84900004
-0.22695811 0.1320798 0.84900004
-0.22487 0.13192423 0.84800005
-0.22278614 0.13176866 0.84700006
-0.2207066 0.13161308 0.84600002
-0.21889007 0.13161308 0.84600002
-0.21733016 0.13176866 0.84700006
-0.21576592 0.13192423 0.84800005
-0.21394512 0.13192423 0.84800005
-0.21237446 0.1320798 0.84900004
-0.2105515 0.1320798 0.84900004
-0.20897439 0.13223536 0.85000002
-0.20714928 0.13223536 0.85000002
-0.20532419 0.13223536 0.85000002
-0.2037385 0.13239093 0.85100001
-0.20191124 0.13239093 0.85100001
-0.20008399 0.13239093 0.85100001
-0.19848971 0.13254651 0.85200006
-0.19666031 0.13254651 0.85200006
-0.19483091 0.13254651 0.85200006
-0.19300152 0.13254651 0.85200006
-0.19094774 0.13239093 0.85100001
-0.18912049 0.13239093 0.85100001
-0.18707316 0.13223536 0.85000002
-0.18524805 0.13223536 0.85000002
-0.18342294 0.13223536 0.85000002
-0.18159783 0.13223536 0.85000002
-0.17998423 0.13239093 0.85100001
-0.17836633 0.13254651 0.85200006
-0.17653695 0.13254651 0.85200006
-0.1749126 0.13270208 0.85300004
-0.17308106 0.13270208 0.85300004
-0.17145026 0.13285765 0.85400003
-0.16941796 0.13270208 0.85300004
-0.16738994 0.13254651 0.85200006
-0.16575485 0.13270208 0.85300004
-0.16373114 0.13254651 0.85200006
-0.16190176 0.13254651 0.85200006
-0.16026023 0.13270208 0.85300004
-0.15842868 0.13270208 0.85300004
-0.15678072 0.13285765 0.85400003
-0.15494703 0.13285765 0.85400003
-0.15293404 0.13270208 0.85300004
-0.15127964 0.13285765 0.85400003
-0.14962094 0.13301322 0.85500002
-0.14761226 0.13285765 0.85400003
-0.14577857 0.13285765 0.85400003
-0.14394487 0.13285765 0.85400003
-0.14211118 0.13285765 0.85400003
-0.14044175 0.13301322 0.85500002
-0.1384438 0.13285765 0.85400003
-0.13645013 0.13270208 0.85300004
-0.13461858 0.13270208 0.85300004
-0.13294272 0.13285765 0.85400003
-0.13126256 0.13301322 0.85500002
-0.1294267 0.13301322 0.85500002
-0.1277401 0.1331688 0.85600007
-0.12604919 0.13332437 0.85700005
-0.12420905 0.13332437 0.85700005
-0.12265449 0.13363551 0.85900003
-0.12081006 0.13363551 0.85900003
-0.11882714 0.13347994 0.85800004
-0.11698487 0.13347994 0.85800004
-0.11500839 0.13332437 0.85700005
-0.11316825 0.13332437 0.85700005
-0.11132812 0.13332437 0.85700005
-0.10936023 0.1331688 0.85600007
-0.10752224 0.1331688 0.85600007
-0.10568426 0.1331688 0.85600007
-0.10384627 0.1331688 0.85600007
-0.10212745 0.13332437 0.85700005
-0.10028731 0.13332437 0.85700005
-0.098447181 0.13332437 0.85700005
-0.096607044 0.13332437 0.85700005
-0.094766907 0.13332437 0.85700005
-0.093035206 0.13347994 0.85800004
-0.091192931 0.13347994 0.85800004
-0.089454785 0.13363551 0.85900003
-0.087610357 0.13363551 0.85900003
-0.085765921 0.13363551 0.85900003
-0.084116898 0.13394666 0.86100006
-0.082268171 0.13394666 0.86100006
-0.080419444 0.13394666 0.86100006
-0.078661978 0.13410223 0.86200005
-0.076900221 0.13425779 0.86300004
-0.075047202 0.13425779 0.86300004
-0.073278993 0.13441336 0.86400002
-0.071423829 0.13441336 0.86400002
-0.069568664 0.13441336 0.86400002
-0.067713499 0.13441336 0.86400002
-0.065934561 0.13456894 0.86500007
-0.064225405 0.13488008 0.86700004
-0.062363803 0.13488008 0.86700004
-0.060502194 0.13488008 0.86700004
-0.058708224 0.13503565 0.86800003
-0.056844469 0.13503565 0.86800003
-0.054980721 0.13503565 0.86800003
-0.053055771 0.13488008 0.86700004
-0.051194165 0.13488008 0.86700004
-0.049332559 0.13488008 0.86700004
-0.047470953 0.13488008 0.86700004
-0.045609348 0.13488008 0.86700004
-0.043697283 0.13472451 0.86600006
-0.041837826 0.13472451 0.86600006
-0.039978363 0.13472451 0.86600006
-0.038118906 0.13472451 0.86600006
-0.036301315 0.13488008 0.86700004
-0.034439713 0.13488008 0.86700004
-0.03261568 0.13503565 0.86800003
-0.030751927 0.13503565 0.86800003
-0.028921453 0.13519122 0.86900002
-0.027055556 0.13519122 0.86900002
-0.025160668 0.13503565 0.86800003
-0.023323754 0.13519122 0.86900002
-0.021457855 0.13519122 0.86900002
-0.019591954 0.13519122 0.86900002
-0.017726054 0.13519122 0.86900002
-0.015860153 0.13519122 0.86900002
-0.013994253 0.13519122 0.86900002
-0.012128352 0.13519122 0.86900002
-0.010262452 0.13519122 0.86900002
-0.008396551 0.13519122 0.86900002
-0.0065381667 0.13534679 0.87000006
-0.0046754866 0.13550237 0.87100005
-0.0028085129 0.13565794 0.87200004
-0.00093617092 0.13565794 0.87200004
0.00093724451 0.1358135 0.87300003
0.0028117336 0.1358135 0.87300003
0.0046862224 0.1358135 0.87300003
0.0065531963 0.13565794 0.87200004
0.0084255384 0.13565794 0.87200004
0.010297881 0.13565794 0.87200004
0.012170223 0.13565794 0.87200004
0.014042565 0.13565794 0.87200004
0.015914908 0.13565794 0.87200004
0.017787248 0.13565794 0.87200004
0.019682135 0.1358135 0.87300003
0.021556625 0.1358135 0.87300003
0.023457954 0.13596907 0.87400001
0.025334589 0.13596907 0.87400001
0.027211225 0.13596907 0.87400001
0.029121144 0.13612464 0.87500006
0.030999929 0.13612464 0.87500006
0.032878708 0.13612464 0.87500006
0.034757495 0.13612464 0.87500006
0.036636278 0.13612464 0.87500006
0.038515061 0.13612464 0.87500006
0.040393844 0.13612464 0.87500006
0.042272627 0.13612464 0.87500006
0.04415141 0.13612464 0.87500006
0.046030197 0.13612464 0.87500006
0.047963731 0.13628021 0.87600005
0.049901564 0.13643578 0.87700003
0.051843684 0.13659136 0.87800002
0.053728912 0.13659136 0.87800002
0.055677481 0.13674693 0.87900007
0.057564851 0.13674693 0.87900007
0.059452225 0.13674693 0.87900007
0.061339598 0.13674693 0.87900007
0.06315504 0.13659136 0.87800002
0.064966179 0.13643578 0.87700003
0.066849262 0.13643578 0.87700003
0.068653971 0.13628021 0.87600005
0.070615418 0.13643578 0.87700003
0.072498493 0.13643578 0.87700003
0.074296758 0.13628021 0.87600005
0.07626465 0.13643578 0.87700003
0.078236841 0.13659136 0.87800002
0.080213316 0.13674693 0.87900007
0.082100689 0.13674693 0.87900007
0.083892509 0.13659136 0.87800002
0.085875437 0.13674693 0.87900007
0.087862648 0.1369025 0.88000005
0.089650176 0.13674693 0.87900007
0.09153755 0.13674693 0.87900007
0.093424924 0.13674693 0.87900007
0.095420726 0.1369025 0.88000005
0.097310245 0.1369025 0.88000005
0.099312492 0.13705806 0.88100004
0.10131904 0.13721363 0.88200003
0.10332986 0.1373692 0.88300002
0.10522582 0.1373692 0.88300002
0.10712179 0.1373692 0.88300002
0.10901775 0.1373692 0.88300002
0.11091371 0.1373692 0.88300002
0.11280967 0.1373692 0.88300002
0.11470563 0.1373692 0.88300002
0.11660159 0.1373692 0.88300002
0.11849756 0.1373692 0.88300002
0.12066621 0.13768035 0.88500005
0.12256646 0.13768035 0.88500005
0.12446672 0.13768035 0.88500005
0.12636697 0.13768035 0.88500005
0.12826723 0.13768035 0.88500005
0.13016748 0.13768035 0.88500005
0.13206774 0.13768035 0.88500005
0.13381663 0.13752478 0.88400006
0.13571474 0.13752478 0.88400006
0.13761285 0.13752478 0.88400006
0.13966876 0.13768035 0.88500005
0.14156902 0.13768035 0.88500005
0.14346927 0.13768035 0.88500005
0.14553379 0.13783592 0.88600004
0.14760259 0.13799149 0.88700002
0.14950715 0.13799149 0.88700002
0.1515824 0.13814707 0.88800007
0.15366195 0.13830264 0.88900006
0.15557078 0.13830264 0.88900006
0.15747963 0.13830264 0.88900006
0.15938847 0.13830264 0.88900006
0.16129732 0.13830264 0.88900006
0.16302258 0.13814707 0.88800007
0.16511501 0.13830264 0.88900006
0.16683598 0.13814707 0.88800007
0.16855264 0.13799149 0.88700002
0.17026502 0.13783592 0.88600004
0.17236173 0.13799149 0.88700002
0.17426628 0.13799149 0.88700002
0.17617084 0.13799149 0.88700002
0.17807539 0.13799149 0.88700002
0.17977703 0.13783592 0.88600004
0.18188448 0.13799149 0.88700002
0.18378904 0.13799149 0.88700002
0.18590294 0.13814707 0.88800007
0.18780963 0.13814707 0.88800007
0.18971634 0.13814707 0.88800007
0.19183882 0.13830264 0.88900006
0.19374767 0.13830264 0.88900006
0.19565651 0.13830264 0.88900006
0.19756536 0.13830264 0.88900006
0.1994742 0.13830264 0.88900006
0.20160957 0.13845821 0.89000005
0.20374922 0.13861378 0.89100003
0.20589319 0.13876934 0.89200002
0.20804146 0.13892493 0.89300007
0.20995888 0.13892493 0.89300007
0.21187632 0.13892493 0.89300007
0.21379375 0.13892493 0.89300007
0.21546963 0.13876934 0.89200002
0.2171412 0.13861378 0.89100003
0.21880849 0.13845821 0.89000005
0.22047149 0.13830264 0.88900006
0.22263049 0.13845821 0.89000005
0.22454146 0.13845821 0.89000005
0.22670688 0.13861378 0.89100003
0.22913322 0.13892493 0.89300007
0.23105064 0.13892493 0.89300007
0.23348984 0.13923606 0.89500004
0.23541155 0.13923606 0.89500004
0.2373333 0.13923606 0.89500004
0.23925501 0.13923606 0.89500004
0.2414462 0.13939163 0.89600003
0.24309848 0.13923606 0.89500004
0.2450202 0.13923606 0.89500004
0.24721785 0.13939163 0.89600003
0.24914171 0.13939163 0.89600003
0.25134578 0.1395472 0.89700001
0.25355417 0.13970278 0.89800006
0.25548235 0.13970278 0.89800006
0.25769717 0.13985835 0.89900005
0.25962746 0.13985835 0.89900005
0.26155779 0.13985835 0.89900005
0.26348811 0.13985835 0.89900005
0.26541844 0.13985835 0.89900005
0.26734874 0.13985835 0.89900005
0.26927906 0.13985835 0.89900005
0.27120936 0.13985835 0.89900005
0.27344349 0.14001392 0.90000004
0.27507001 0.13985835 0.89900005
0.27792469 0.14032507 0.90200007
0.28203332 0.14141406 0.90900004
0.28648442 0.14265862 0.91700006
0.29065531 0.14374763 0.92400002
0.29612312 0.14545891 0.93500006
0.29876846 0.14577004 0.93700004
0.30142236 0.14608119 0.93900007
0.30376169 0.14623676 0.94000006
0.30545476 0.14608119 0.93900007
0.30681607 0.14577004 0.93700004
0.30849838 0.14561448 0.93600005
0.30951291 0.14514776 0.93300003
0.3105146 0.14468105 0.93000007
0.31150338 0.14421433 0.92700005
0.31214106 0.14359204 0.92300004
0.31344229 0.14328091 0.92100006
0.31473485 0.14296977 0.91900003
0.31636351 0.1428142 0.91800004
0.31764108 0.14250305 0.91600007
0.31891006 0.14219192 0.91400003
0.32017046 0.14188078 0.91200006
0.32142228 0.14156963 0.91000003
0.32302085 0.14141406 0.90900004
0.32425761 0.14110292 0.90700006
0.32476652 0.14048064 0.90300006
0.32634363 0.14032507 0.90200007
0.32718852 0.13985835 0.89900005
0.32802054 0.13939163 0.89600003
0.32920796 0.13908049 0.89400005
0.33038673 0.13876934 0.89200002
0.33043933 0.13799149 0.88700002
0.3304705 0.13721363 0.88200003
0.33010331 0.13628021 0.87600005
nan nan nan
nan nan nan
0.32041526 0.13005736 0.83600003
0.32066861 0.12943509 0.83200002
0.32090482 0.1288128 0.82800007
0.32229295 0.12865724 0.82700002
0.32328495 0.1283461 0.82500005
0.32348034 0.12772381 0.82100004
0.32247007 0.12663481 0.81400001
0.3218281 0.12570138 0.80800003
0.32156077 0.12492353 0.80300003
0.32127199 0.12414567 0.79800004
0.32096171 0.12336782 0.79300004
0.32103685 0.12274554 0.78900003
0.32150385 0.12227882 0.78600001
0.32278034 0.12212325 0.78500003
0.32363924 0.12181211 0.78300005
0.3244895 0.12150096 0.78100002
0.32491359 0.12103426 0.77800006
0.32574454 0.12072311 0.77600002
0.32614502 0.1202564 0.77300006
0.32738069 0.12010083 0.77200001
0.32861209 0.11994526 0.77100003
0.32941088 0.11963411 0.76900005
0.330201 0.11932297 0.76700002
0.33184791 0.11932297 0.76700002
0.33262518 0.11901183 0.76500005
0.33383086 0.11885627 0.76400006
0.33503217 0.11870068 0.76300001
0.33667046 0.11870068 0.76300001
0.33786538 0.11854511 0.76200002
0.33861044 0.11823398 0.76000005
0.33979464 0.11807841 0.75900006
0.34052467 0.11776726 0.75700003
0.34169811 0.11761169 0.75600004
0.3424131 0.11730055 0.75400001
0.34311953 0.1169894 0.75200003
0.34381738 0.11667827 0.75000006
0.34450659 0.11636712 0.74800003
0.34564999 0.11621156 0.74700004
0.34678906 0.11605599 0.74600005
0.34745684 0.11574484 0.74400002
0.34811604 0.1154337 0.74200004
0.34876662 0.11512255 0.74000001
0.34940863 0.11481141 0.73800004
0.35004207 0.11450028 0.73600006
0.35114461 0.11434469 0.73500001
0.35224289 0.11418913 0.73400003
0.3533369 0.11403356 0.73300004
0.35491079 0.11403356 0.73300004
0.35599834 0.11387799 0.73200005
0.35757008 0.11387799 0.73200005
0.35914183 0.11387799 0.73200005
0.36071354 0.11387799 0.73200005
0.36228529 0.11387799 0.73200005
0.36335993 0.11372241 0.73100001
0.36393109 0.11341128 0.72900003
0.36449364 0.11310013 0.72700006
0.36454409 0.11263342 0.72400004
0.36407602 0.11201113 0.72000003
0.36460641 0.1117 0.71800005
0.36563808 0.11154442 0.71700001
0.36666551 0.11138885 0.71600002
0.36768866 0.11123328 0.71500003
nan nan nan
nan nan nan
nan nan nan
nan nan nan
nan nan nan
nan nan nan
nan nan nan
nan nan nan
nan nan nan
nan nan nan
nan nan nan
nan nan nan
nan nan nan
nan nan nan
nan nan nan
nan nan nan
nan nan nan
nan nan nan
nan nan nan
nan nan nan
nan nan nan
nan nan nan
nan nan nan
nan nan nan
nan nan nan
nan nan nan
nan nan nan
nan nan nan
nan nan nan
nan nan nan
nan nan nan
nan nan nan
nan nan nan
nan nan nan
nan nan nan
nan nan nan
nan nan nan
nan nan nan
nan nan nan
nan nan nan
nan nan nan
nan nan nan
nan nan nan
-0.34217802 0.12790947 0.81100005
-0.33959708 0.12759402 0.80900002
-0.3374424 0.12743631 0.80800003
-0.33612293 0.12759402 0.80900002
-0.33438587 0.12759402 0.80900002
-0.33264878 0.12759402 0.80900002
-0.33050269 0.12743631 0.80800003
-0.32917464 0.12759402 0.80900002
-0.32743758 0.12759402 0.80900002
-0.32570052 0.12759402 0.80900002
-0.32476437 0.12790947 0.81100005
-0.32302299 0.12790947 0.81100005
-0.32088548 0.12775175 0.81000006
-0.31875226 0.12759402 0.80900002
-0.31701517 0.12759402 0.80900002
-0.31527811 0.12759402 0.80900002
-0.31315348 0.12743631 0.80800003
-0.31103313 0.1272786 0.80700004
-0.30853385 0.12696315 0.80500007
-0.3064242 0.12680544 0.80400002
nan nan nan
nan nan nan
nan nan nan
nan nan nan
nan nan nan
nan nan nan
nan nan nan
nan nan nan
nan nan nan
nan nan nan
nan nan nan
nan nan nan
nan nan nan
nan nan nan
nan nan nan
nan nan nan
nan nan nan
nan nan nan
nan nan nan
nan nan nan
nan nan nan
nan nan nan
nan nan nan
nan nan nan
nan nan nan
nan nan nan
nan nan nan
nan nan nan
-0.26401311 0.13059068 0.82800007
nan nan nan
-0.26454666 0.132641 0.84100002
-0.26367813 0.13311416 0.84400004
-0.26217619 0.13327189 0.84500003
-0.26066992 0.1334296 0.84600002
-0.25854743 0.13327189 0.84500003
-0.25642923 0.13311416 0.84400004
-0.25522038 0.1334296 0.84600002
-0.25340387 0.1334296 0.84600002
-0.25158733 0.1334296 0.84600002
-0.24977084 0.1334296 0.84600002
-0.24795431 0.1334296 0.84600002
-0.2461378 0.1334296 0.84600002
-0.24432127 0.1334296 0.84600002
-0.24250478 0.1334296 0.84600002
-0.24068826 0.1334296 0.84600002
-0.23887174 0.1334296 0.84600002
-0.23733546 0.13358732 0.84700006
-0.23579483 0.13374504 0.84800005
-0.23424995 0.13390276 0.84900004
-0.23270074 0.13406047 0.85000002
-0.23087564 0.13406047 0.85000002
-0.22905053 0.13406047 0.85000002
-0.22722544 0.13406047 0.85000002
-0.22487 0.13374504 0.84800005
-0.22304916 0.13374504 0.84800005
-0.22122838 0.13374504 0.84800005
-0.21940754 0.13374504 0.84800005
-0.21758674 0.13374504 0.84800005
-0.21602036 0.13390276 0.84900004
-0.21419741 0.13390276 0.84900004
-0.21262461 0.13406047 0.85000002
-0.2107995 0.13406047 0.85000002
-0.20897439 0.13406047 0.85000002
-0.20714928 0.13406047 0.85000002
-0.20556575 0.13421819 0.85100001
-0.2037385 0.13421819 0.85100001
-0.20214851 0.13437591 0.85200006
-0.20031911 0.13437591 0.85200006
-0.19848971 0.13437591 0.85200006
-0.19666031 0.13437591 0.85200006
-0.19483091 0.13437591 0.85200006
-0.19300152 0.13437591 0.85200006
-0.19117212 0.13437591 0.85200006
-0.18934274 0.13437591 0.85200006
-0.18751334 0.13437591 0.85200006
-0.18546598 0.13421819 0.85100001
-0.18385454 0.13437591 0.85200006
-0.18202513 0.13437591 0.85200006
-0.18040723 0.13453363 0.85300004
-0.17857568 0.13453363 0.85300004
-0.17674415 0.13453363 0.85300004
-0.17511766 0.13469134 0.85400003
-0.17328395 0.13469134 0.85400003
-0.17145026 0.13469134 0.85400003
-0.16941796 0.13453363 0.85300004
-0.16738994 0.13437591 0.85200006
-0.16575485 0.13453363 0.85300004
-0.16392331 0.13453363 0.85300004
-0.1622818 0.13469134 0.85400003
-0.16063598 0.13484906 0.85500002
-0.15880014 0.13484906 0.85500002
-0.1569643 0.13484906 0.85500002
-0.15512846 0.13484906 0.85500002
-0.15329263 0.13484906 0.85500002
-0.15163393 0.13500679 0.85600007
-0.14979593 0.13500679 0.85600007
-0.14778511 0.13484906 0.85500002
-0.14594926 0.13484906 0.85500002
-0.14411342 0.13484906 0.85500002
-0.14227758 0.13484906 0.85500002
-0.14044175 0.13484906 0.85500002
-0.13860591 0.13484906 0.85500002
-0.13661009 0.13469134 0.85400003
-0.1347764 0.13469134 0.85400003
-0.13309839 0.13484906 0.85500002
-0.13126256 0.13484906 0.85500002
-0.12957808 0.13500679 0.85600007
-0.12788934 0.1351645 0.85700005
-0.12619628 0.13532221 0.85800004
-0.12449893 0.13547994 0.85900003
-0.12265449 0.13547994 0.85900003
-0.12081006 0.13547994 0.85900003
-0.11896563 0.13547994 0.85900003
-0.11712121 0.13547994 0.85900003
-0.11527678 0.13547994 0.85900003
-0.11343236 0.13547994 0.85900003
-0.11145803 0.13532221 0.85800004
-0.10948798 0.1351645 0.85700005
-0.10764785 0.1351645 0.85700005
-0.10593118 0.13532221 0.85800004
-0.1040889 0.13532221 0.85800004
-0.10212745 0.1351645 0.85700005
-0.10028731 0.1351645 0.85700005
-0.098447181 0.1351645 0.85700005
-0.096719772 0.13532221 0.85800004
-0.094877489 0.13532221 0.85800004
-0.093143634 0.13547994 0.85900003
-0.091299213 0.13547994 0.85900003
-0.089558922 0.13563766 0.86000001
-0.08771234 0.13563766 0.86000001
-0.085965611 0.13579537 0.86100006
-0.08421459 0.1359531 0.86200005
-0.082363717 0.1359531 0.86200005
-0.080512851 0.1359531 0.86200005
-0.078753233 0.13611081 0.86300004
-0.076989323 0.13626853 0.86400002
-0.075134158 0.13626853 0.86400002
-0.073278993 0.13626853 0.86400002
-0.071423829 0.13626853 0.86400002
-0.06964919 0.13642626 0.86500007
-0.067791879 0.13642626 0.86500007
-0.066087015 0.13674168 0.86700004
-0.064225405 0.13674168 0.86700004
-0.062435731 0.1368994 0.86800003
-0.060571976 0.1368994 0.86800003
-0.058775857 0.13705711 0.86900002
-0.056909956 0.13705711 0.86900002
-0.055044062 0.13705711 0.86900002
-0.053178158 0.13705711 0.86900002
-0.051312257 0.13705711 0.86900002
-0.049389459 0.1368994 0.86800003
-0.047470953 0.13674168 0.86700004
-0.045661952 0.1368994 0.86800003
-0.043747738 0.13674168 0.86700004
-0.041886136 0.13674168 0.86700004
-0.040024526 0.13674168 0.86700004
-0.038162924 0.13674168 0.86700004
-0.036301315 0.13674168 0.86700004
-0.034479436 0.1368994 0.86800003
-0.032653254 0.13705711 0.86900002
-0.030787356 0.13705711 0.86900002
-0.028921453 0.13705711 0.86900002
-0.027055556 0.13705711 0.86900002
-0.025189655 0.13705711 0.86900002
-0.023323754 0.13705711 0.86900002
-0.021457855 0.13705711 0.86900002
-0.019591954 0.13705711 0.86900002
-0.017726054 0.13705711 0.86900002
-0.015878405 0.13721484 0.87000006
-0.014010358 0.13721484 0.87000006
-0.012170223 0.13753027 0.87200004
-0.010286071 0.13737255 0.87100005
-0.008415876 0.13737255 0.87100005
-0.0065531963 0.13753027 0.87200004
-0.0046808547 0.13753027 0.87200004
-0.0028117336 0.137688 0.87300003
-0.00093831809 0.13784571 0.87400001
0.00093831809 0.13784571 0.87400001
0.0028181751 0.13800344 0.87500006
0.0046969587 0.13800344 0.87500006
0.0065682265 0.13784571 0.87400001
0.0084448624 0.13784571 0.87400001
0.01030969 0.137688 0.87300003
0.012184178 0.137688 0.87300003
0.014058668 0.137688 0.87300003
0.015951408 0.13784571 0.87400001
0.017828045 0.13784571 0.87400001
0.019727226 0.13800344 0.87500006
0.021581316 0.13784571 0.87400001
0.023484794 0.13800344 0.87500006
0.025363578 0.13800344 0.87500006
0.027242361 0.13800344 0.87500006
0.029121144 0.13800344 0.87500006
0.030999929 0.13800344 0.87500006
0.032916285 0.13816115 0.87600005
0.034797218 0.13816115 0.87600005
0.036720015 0.13831887 0.87700003
0.038559079 0.13816115 0.87600005
0.040440008 0.13816115 0.87600005
0.042320941 0.13816115 0.87600005
0.04420187 0.13816115 0.87600005
0.046135407 0.13831887 0.87700003
0.048018482 0.13831887 0.87700003
0.04995846 0.13847658 0.87800002
0.051843684 0.13847658 0.87800002
0.053790107 0.13863431 0.87900007
0.055740822 0.13879202 0.88000005
0.057630338 0.13879202 0.88000005
0.059519861 0.13879202 0.88000005
0.061339598 0.13863431 0.87900007
0.06315504 0.13847658 0.87800002
0.065040261 0.13847658 0.87800002
0.066849262 0.13831887 0.87700003
0.068732336 0.13831887 0.87700003
0.070695937 0.13847658 0.87800002
0.072581157 0.13847658 0.87800002
0.074466385 0.13847658 0.87800002
0.076351613 0.13847658 0.87800002
0.078415059 0.13879202 0.88000005
0.08030457 0.13879202 0.88000005
0.08219409 0.13879202 0.88000005
0.084083609 0.13879202 0.88000005
0.085973136 0.13879202 0.88000005
0.087862648 0.13879202 0.88000005
0.089752167 0.13879202 0.88000005
0.091641687 0.13879202 0.88000005
0.093637496 0.13894974 0.88100004
0.095529154 0.13894974 0.88100004
0.097531401 0.13910745 0.88200003
0.099537946 0.13926516 0.88300002
0.1014339 0.13926516 0.88300002
0.10344689 0.13942289 0.88400006
0.10522582 0.13926516 0.88300002
0.10712179 0.13926516 0.88300002
0.10901775 0.13926516 0.88300002
0.11091371 0.13926516 0.88300002
0.11280967 0.13926516 0.88300002
0.11483554 0.13942289 0.88400006
0.11673365 0.13942289 0.88400006
0.11876596 0.13958061 0.88500005
0.12080256 0.13973832 0.88600004
0.12270495 0.13973832 0.88600004
0.12460735 0.13973832 0.88600004
0.12650976 0.13973832 0.88600004
0.12841216 0.13973832 0.88600004
0.13031456 0.13973832 0.88600004
0.13221698 0.13973832 0.88600004
0.133968 0.13958061 0.88500005
0.13571474 0.13942289 0.88400006
0.13761285 0.13942289 0.88400006
0.13966876 0.13958061 0.88500005
0.14140905 0.13942289 0.88400006
0.14346927 0.13958061 0.88500005
0.14553379 0.13973832 0.88600004
0.14760259 0.13989605 0.88700002
0.14967571 0.14005376 0.88800007
0.1515824 0.14005376 0.88800007
0.15366195 0.14021149 0.88900006
0.15557078 0.14021149 0.88900006
0.15747963 0.14021149 0.88900006
0.15938847 0.14021149 0.88900006
0.16111588 0.14005376 0.88800007
0.16320616 0.14021149 0.88900006
0.16511501 0.14021149 0.88900006
0.16683598 0.14005376 0.88800007
0.16874267 0.14005376 0.88800007
0.17045718 0.13989605 0.88700002
0.17255606 0.14005376 0.88800007
0.17446277 0.14005376 0.88800007
0.17636946 0.14005376 0.88800007
0.17807539 0.13989605 0.88700002
0.17997994 0.13989605 0.88700002
0.18188448 0.13989605 0.88700002
0.18378904 0.13989605 0.88700002
0.18590294 0.14005376 0.88800007
0.18780963 0.14005376 0.88800007
0.18971634 0.14005376 0.88800007
0.19183882 0.14021149 0.88900006
0.19374767 0.14021149 0.88900006
0.19565651 0.14021149 0.88900006
0.19756536 0.14021149 0.88900006
0.19969858 0.14036921 0.89000005
0.20183609 0.14052692 0.89100003
0.2039779 0.14068463 0.89200002
0.20612402 0.14084236 0.89300007
0.20804146 0.14084236 0.89300007
0.21019401 0.14100008 0.89400005
0.21211359 0.14100008 0.89400005
0.21379375 0.14084236 0.89300007
0.21546963 0.14068463 0.89200002
0.2171412 0.14052692 0.89100003
0.21880849 0.14036921 0.89000005
0.22047149 0.14021149 0.88900006
0.22238034 0.14021149 0.88900006
0.22454146 0.14036921 0.89000005
0.22670688 0.14052692 0.89100003
0.22913322 0.14084236 0.89300007
0.23130937 0.14100008 0.89400005
0.23348984 0.14115779 0.89500004
0.23567459 0.1413155 0.89600003
0.23759848 0.1413155 0.89600003
0.23952234 0.1413155 0.89600003
0.24171567 0.14147322 0.89700001
0.2436417 0.14147322 0.89700001
0.24556771 0.14147322 0.89700001
0.24776968 0.14163095 0.89800006
0.24969783 0.14163095 0.89800006
0.25190622 0.14178866 0.89900005
0.25383651 0.14178866 0.89900005
0.25576687 0.14178866 0.89900005
0.25769717 0.14178866 0.89900005
0.25962746 0.14178866 0.89900005
0.26155779 0.14178866 0.89900005
0.26378119 0.14194638 0.90000004
0.26541844 0.14178866 0.89900005
0.26734874 0.14178866 0.89900005
0.26927906 0.14178866 0.89900005
0.27120936 0.14178866 0.89900005
0.27405116 0.14226182 0.90200007
0.27568194 0.1421041 0.90100002
0.27884904 0.14273497 0.90500003
0.28327438 0.14399672 0.91300005
0.28742164 0.14510074 0.92000002
0.29317182 0.14699337 0.93200004
0.29738995 0.1480974 0.93900007
0.29972503 0.14825511 0.94000006
0.30174336 0.14825511 0.94000006
0.30376169 0.14825511 0.94000006
0.30545476 0.1480974 0.93900007
0.30681607 0.14778195 0.93700004
0.308828 0.14778195 0.93700004
0.30984464 0.1473088 0.93400002
0.3105146 0.14667793 0.93000007
0.31150338 0.14620477 0.92700005
0.31214106 0.1455739 0.92300004
0.31310195 0.14510074 0.92000002
0.31439239 0.14478531 0.91800004
0.31601891 0.1446276 0.91700006
0.3172943 0.14431216 0.91500002
0.31856117 0.14399672 0.91300005
0.31981942 0.14368129 0.91100007
0.32142228 0.14352356 0.91000003
0.32302085 0.14336585 0.90900004
0.3239001 0.14289269 0.90600002
0.32476652 0.14241955 0.90300006
0.3259818 0.1421041 0.90100002
0.32718852 0.14178866 0.89900005
0.32802054 0.1413155 0.89600003
0.32920796 0.14100008 0.89400005
0.33001634 0.14052692 0.89100003
0.33043933 0.13989605 0.88700002
0.3300958 0.13894974 0.88100004
0.32972649 0.13800344 0.87500006
nan nan nan
nan nan nan
0.3211818 0.13216786 0.83800006
0.32105404 0.13137926 0.83300006
0.32167995 0.13090611 0.83000004
0.32229295 0.13043295 0.82700002
0.32367679 0.13027523 0.82600003
0.32387435 0.12964436 0.82200003
0.32365856 0.12885576 0.81700003
0.32222638 0.12759402 0.80900002
0.32075986 0.12633228 0.80100006
0.32006419 0.12538597 0.79500002
0.31974745 0.12459738 0.79000002
0.32022306 0.12412423 0.78700006
0.32109481 0.12380879 0.78500003
0.32195798 0.12349336 0.78300005
0.32281256 0.12317792 0.78100002
0.32324308 0.12270477 0.77800006
0.3236607 0.12223161 0.77500004
0.32448524 0.12191617 0.77300006
0.32530117 0.12160073 0.77100003
0.32610852 0.1212853 0.76900005
0.32775968 0.1212853 0.76900005
0.32855412 0.12096986 0.76700002
0.32977051 0.12081214 0.76600003
0.3309826 0.12065443 0.76500005
0.33219039 0.12049671 0.76400006
0.33339387 0.12033898 0.76300001
0.33459309 0.12018127 0.76200002
0.33534673 0.11986583 0.76000005
0.33653522 0.11970812 0.75900006
0.33727384 0.11939268 0.75700003
0.33845156 0.11923496 0.75600004
0.33917513 0.11891952 0.75400001
0.34034216 0.11876181 0.75300002
0.34150484 0.11860409 0.75200003
0.34266329 0.11844637 0.75100005
0.34335893 0.11813093 0.74900001
0.34404603 0.1178155 0.74700004
0.34564999 0.1178155 0.74700004
0.34632421 0.11750007 0.74500006
0.34698984 0.11718462 0.74300003
0.34811604 0.11702691 0.74200004
0.34829533 0.11655375 0.73900002
0.34893519 0.11623832 0.73700005
0.34956646 0.11592288 0.73500001
0.35066688 0.11576516 0.73400003
0.35176301 0.11560745 0.73300004
0.35285488 0.11544973 0.73200005
0.35442659 0.11544973 0.73200005
0.35599834 0.11544973 0.73200005
0.35757008 0.11544973 0.73200005
0.35914183 0.11544973 0.73200005
0.36071354 0.11544973 0.73200005
0.36228529 0.11544973 0.73200005
0.36385703 0.11544973 0.73200005
0.36443028 0.11513428 0.73000002
0.364995 0.11481886 0.72800004
0.36454409 0.11418798 0.72400004
0.36407602 0.11355711 0.72000003
0.36409858 0.11308395 0.71700001
0.36512813 0.11292623 0.71600002
0.36564133 0.1126108 0.71400005
0.36666018 0.11245308 0.71300006
nan nan nan
nan nan nan
nan nan nan
nan nan nan
nan nan nan
nan nan nan
nan nan nan
nan nan nan
nan nan nan
nan nan nan
nan nan nan
nan nan nan
nan nan nan
nan nan nan
nan nan nan
nan nan nan
nan nan nan
nan nan nan
nan nan nan
nan nan nan
nan nan nan
nan nan nan
nan nan nan
nan nan nan
nan nan nan
nan nan nan
nan nan nan
nan nan nan
nan nan nan
nan nan nan
nan nan nan
nan nan nan
nan nan nan
nan nan nan
nan nan nan
nan nan nan
nan nan nan
nan nan nan
nan nan nan
nan nan nan
nan nan nan
-0.34267721 0.12853177 0.80400002
-0.34095088 0.12853177 0.80400002
-0.33922455 0.12853177 0.80400002
-0.33791801 0.12869164 0.80500007
-0.33660716 0.1288515 0.80600005
-0.33529198 0.12901136 0.80700004
-0.33397254 0.12917124 0.80800003
-0.3322376 0.12917124 0.80800003
-0.33009365 0.12901136 0.80700004
-0.32876775 0.12917124 0.80800003
-0.32703286 0.12917124 0.80800003
-0.32529795 0.12917124 0.80800003
-0.32396343 0.1293311 0.80900002
-0.32262471 0.12949097 0.81000006
-0.32048932 0.1293311 0.80900002
-0.31875226 0.1293311 0.80900002
-0.3166233 0.12917124 0.80800003
-0.31488839 0.12917124 0.80800003
-0.31315348 0.12917124 0.80800003
-0.31064773 0.1288515 0.80600005
-0.30815056 0.12853177 0.80400002
-0.3064242 0.12853177 0.80400002
nan nan nan
nan nan nan
nan nan nan
nan nan nan
nan nan nan
nan nan nan
nan nan nan
nan nan nan
nan nan nan
nan nan nan
nan nan nan
nan nan nan
nan nan nan
nan nan nan
nan nan nan
nan nan nan
nan nan nan
nan nan nan
nan nan nan
nan nan nan
nan nan nan
nan nan nan
nan nan nan
nan nan nan
nan nan nan
nan nan nan
nan nan nan
nan nan nan
nan nan nan
nan nan nan
nan nan nan
-0.26492777 0.13556585 0.84800005
-0.26279673 0.13540599 0.84700006
-0.26128617 0.13556585 0.84800005
-0.25885341 0.13524611 0.84600002
-0.25703689 0.13524611 0.84600002
-0.25522038 0.13524611 0.84600002
-0.25340387 0.13524611 0.84600002
-0.25188473 0.13540599 0.84700006
-0.2500661 0.13540599 0.84700006
-0.24824741 0.13540599 0.84700006
-0.24642876 0.13540599 0.84700006
-0.24461009 0.13540599 0.84700006
-0.24279143 0.13540599 0.84700006
-0.24125728 0.13556585 0.84800005
-0.2391541 0.13540599 0.84700006
-0.23761566 0.13556585 0.84800005
-0.23607288 0.13572571 0.84900004
-0.23424995 0.13572571 0.84900004
-0.23270074 0.13588558 0.85000002
-0.23087564 0.13588558 0.85000002
-0.22905053 0.13588558 0.85000002
-0.22722544 0.13588558 0.85000002
-0.22487 0.13556585 0.84800005
-0.22304916 0.13556585 0.84800005
-0.22122838 0.13556585 0.84800005
-0.21940754 0.13556585 0.84800005
-0.21784334 0.13572571 0.84900004
-0.2162748 0.13588558 0.85000002
-0.214702 0.13604544 0.85100001
-0.21312492 0.13620532 0.85200006
-0.2112955 0.13620532 0.85200006
-0.2094661 0.13620532 0.85200006
-0.2076367 0.13620532 0.85200006
-0.20580731 0.13620532 0.85200006
-0.2037385 0.13604544 0.85100001
-0.20214851 0.13620532 0.85200006
-0.20031911 0.13620532 0.85200006
-0.19848971 0.13620532 0.85200006
-0.19689113 0.13636518 0.85300004
-0.19505958 0.13636518 0.85300004
-0.19345456 0.13652503 0.85400003
-0.19162089 0.13652503 0.85400003
-0.18978719 0.13652503 0.85400003
-0.18773341 0.13636518 0.85300004
-0.18590187 0.13636518 0.85300004
-0.1842861 0.13652503 0.85400003
-0.18266605 0.13668491 0.85500002
-0.18083021 0.13668491 0.85500002
-0.17899437 0.13668491 0.85500002
-0.17715855 0.13668491 0.85500002
-0.1753227 0.13668491 0.85500002
-0.17328395 0.13652503 0.85400003
-0.17145026 0.13652503 0.85400003
-0.16941796 0.13636518 0.85300004
-0.1675864 0.13636518 0.85300004
-0.16594918 0.13652503 0.85400003
-0.16411549 0.13652503 0.85400003
-0.16247183 0.13668491 0.85500002
-0.16063598 0.13668491 0.85500002
-0.15898588 0.13684477 0.85600007
-0.15733148 0.13700464 0.85700005
-0.1553099 0.13684477 0.85600007
-0.15347192 0.13684477 0.85600007
-0.15163393 0.13684477 0.85600007
-0.14962094 0.13668491 0.85500002
-0.14778511 0.13668491 0.85500002
-0.14594926 0.13668491 0.85500002
-0.14411342 0.13668491 0.85500002
-0.142444 0.13684477 0.85600007
-0.14044175 0.13668491 0.85500002
-0.13860591 0.13668491 0.85500002
-0.13677005 0.13668491 0.85500002
-0.13509205 0.13684477 0.85600007
-0.13325407 0.13684477 0.85600007
-0.13156959 0.13700464 0.85700005
-0.12972946 0.13700464 0.85700005
-0.12818779 0.13732436 0.85900003
-0.12634335 0.13732436 0.85900003
-0.12449893 0.13732436 0.85900003
-0.12279728 0.13748422 0.86000001
-0.1209507 0.13748422 0.86000001
-0.11910412 0.13748422 0.86000001
-0.11712121 0.13732436 0.85900003
-0.11527678 0.13732436 0.85900003
-0.11343236 0.13732436 0.85900003
-0.11158793 0.13732436 0.85900003
-0.1097435 0.13732436 0.85900003
-0.10789906 0.13732436 0.85900003
-0.10605464 0.13732436 0.85900003
-0.10421021 0.13732436 0.85900003
-0.10236578 0.13732436 0.85900003
-0.10052135 0.13732436 0.85900003
-0.0987918 0.13748422 0.86000001
-0.096832499 0.13732436 0.85900003
-0.095098644 0.13748422 0.86000001
-0.09325207 0.13748422 0.86000001
-0.091405496 0.13748422 0.86000001
-0.089767203 0.13780397 0.86200005
-0.08791633 0.13780397 0.86200005
-0.086065456 0.13780397 0.86200005
-0.08431229 0.13796383 0.86300004
-0.082363717 0.13780397 0.86200005
